# .PCD v0.7 - Point Cloud Data file format
VERSION 0.7
FIELDS x y z intensity
SIZE 4 4 4 4
TYPE F F F F
COUNT 1 1 1 1
WIDTH 1410
HEIGHT 1
VIEWPOINT 0 0 0 1 0 0 0
POINTS 1410
DATA ascii
-6.7222381 2.0637565 4.2607803 13.75
-6.6018476 2.3187943 4.2811399 14
-6.8772922 2.4369922 4.397069 14
-6.566855 2.428957 4.282238 13
-11.979702 2.6159577 4.3842869 13
-7.1519003 2.6304376 4.3550339 15
-38.805138 2.8780608 4.2685566 10
33.945515 3.1925468 4.2776551 10
24.790672 5.0110235 4.3484979 13
25.597155 6.4438553 4.3191185 13
-39.887486 6.9559793 4.2966919 12
37.078224 6.8070693 4.2648201 11
-39.899063 7.0088482 4.3000393 12
24.484529 8.7863646 4.2715607 13
24.866045 8.6504354 4.3715591 15
24.312471 10.530397 4.3544922 14
24.886917 10.428463 4.3960838 14
-6.3028646 0.1392597 4.5421624 7
-1.9018614 0.093081892 4.4964285 7
-6.5018902 0.27030677 4.4462042 8
-6.3256607 0.23477668 4.4667149 7
-6.1988854 0.2304679 4.5909882 7
-1.9376885 0.26813933 4.5666142 8
-6.5262423 0.45976847 4.4701538 8.25
-1.8909938 0.43563822 4.4719996 9
-1.6748414 0.4395321 4.4869304 9
-6.4789572 0.65557104 4.4660692 9
-1.9293914 0.72125101 4.4797926 10.666666
-1.6815324 0.65281522 4.4805136 10.25
-1.1576111 0.67091191 4.5289798 10
-6.4012909 0.85771817 4.5134397 10
-6.3215723 0.8986392 4.4631233 10.5
-1.1606287 0.85782087 4.4934316 11
-6.3246737 1.0633827 4.4905739 11.25
-1.7126706 1.1197217 4.5142522 13
-1.5509305 1.1306698 4.4321966 13
-1.0906268 1.0465837 4.4992585 12
-0.71338046 1.0525997 4.5924768 12
-6.3669186 1.2911003 4.431335 12
-1.6698537 1.3032942 4.4434943 14
-1.0792513 1.2246091 4.584691 13
-39.319492 1.4646299 4.4677563 9
-6.4670663 1.4678015 4.4612675 12.666667
-7.2312336 1.8811527 4.4718204 14
-7.1381989 1.8439136 4.4129353 13
-11.875507 2.1400199 4.4909616 12
-7.0813484 2.1312559 4.5886607 15
-6.8838248 2.0847507 4.406827 13
-7.1267076 2.5690818 4.4841919 14
-6.7252769 2.4450889 4.4253187 12
-7.4524899 2.648458 4.5078259 12
-7.359756 2.6606588 4.5565777 13
25.369699 5.3952961 4.5580673 13
25.481386 5.3650513 4.5327539 12
25.699383 5.5504723 4.4067059 12
25.498409 6.6536145 4.5982437 13
25.002598 8.6982288 4.4234085 13
66.35836 14.227993 4.4102173 14
-6.2299037 -0.0013286173 4.7138567 6
-9.1322212 0.025684595 4.7740936 8
-8.4473114 0.038525939 4.7956905 8
-7.9484367 0.017244935 4.6524849 8
-6.294013 0.16742957 4.7395473 7
-6.0525508 0.071724147 4.7676363 7
-6.2842827 0.37238708 4.6950731 8
-6.1358824 0.29027063 4.7283072 7.4285712
-0.98192841 0.31798935 4.7668824 8
-6.4501648 0.44521528 4.6382146 8
-6.2591043 0.44917569 4.749372 8
-6.170321 0.49103218 4.6796975 8.3999996
-0.96615857 0.49516934 4.7458782 9
-6.2540989 0.72246289 4.6466274 10
-6.1470327 0.61642742 4.6923656 9
-1.0021689 0.67282248 4.6817493 10
-11.432936 0.96646321 4.7918134 10
-6.3178315 0.85062855 4.6874413 10
-6.1641541 1.1611633 4.6819696 12
-6.2225676 1.2789793 4.7050476 11
-6.1850643 1.2630134 4.7167234 12
-0.9289068 1.3989269 4.7009797 14
-0.72610074 1.229432 4.6628761 13
-1.0198585 1.583418 4.6832747 15
-11.602652 1.7689033 4.7802176 12
-11.482782 1.6237615 4.7502289 11
-7.3407116 1.9358218 4.7676668 11
-11.578623 2.0273471 4.681807 12
-7.2286105 2.1172044 4.6300192 11
-7.1257401 2.1734605 4.6326451 14
-11.59197 2.4279885 4.6846199 13
-7.2808428 2.5433731 4.7444472 13
-40.385765 3.5002503 4.7048836 9
-40.033916 3.926239 4.7147713 10
-38.946095 4.1933403 4.6451073 11
-39.784546 4.3997526 4.6492643 11
-38.804653 4.240418 4.6202812 11
25.167049 4.408433 4.7420545 12
-41.582558 4.7410841 4.7525806 11
25.522785 5.3733039 4.6105614 13
-40.957825 6.0907187 4.7435999 12
25.382303 6.3207407 4.6570368 14
-6.0532465 -0.14152554 4.8252382 6
-39.291683 0.15576422 4.9923592 8
-9.2351856 0.057712436 4.8170586 8
-6.184341 0.17691377 4.9673762 7
-5.9354477 0.082301944 4.9281054 7
-0.95192003 0.14431214 4.8049216 7
-6.2092891 0.24190331 4.815599 7
-6.0930128 0.30015019 4.9108138 7.5714288
-1.0632017 0.37680444 4.8830256 8
-11.436913 0.57604152 4.9031081 9
-6.2197514 0.50617641 4.8794231 8.5
-6.0940247 0.52313304 4.9151654 8.666667
-2.01443 0.4724423 4.8262663 9
-1.0680926 0.57115906 4.9330416 9
-6.2082829 0.69516957 4.8537855 9
-6.1727061 0.6379233 4.8731542 9
-5.9465537 0.76445657 4.94596 9.666667
-2.0189023 0.64700878 4.9253297 10
-1.1668186 0.7606976 4.9504886 10
-5.9681969 0.91729736 4.8945899 10.666667
-2.0159931 0.81852579 4.9546289 11
-1.7088645 0.99166709 4.9730792 12
-1.1693299 0.94994295 4.9856424 11
-6.0603056 1.0942049 4.9032383 11.5
-5.9747009 1.1060495 4.8966012 11.666667
-1.6826268 1.1714571 4.908814 13
-11.425257 1.3637917 4.8547835 11
-6.0845313 1.2361255 4.8668475 11.666667
-1.7177826 1.3458292 4.9135838 14
-1.2280728 1.3357923 4.9502912 13
-7.7073793 1.9224885 4.8973017 14
-7.4306822 2.1671982 4.8550072 15
-7.8446703 2.6674666 4.8917556 15
-39.880627 5.5329981 4.8484154 12
-39.582039 5.4709263 4.8618565 11
23.3731 7.7450218 4.9451218 14
-39.205418 0.039425015 5.1553116 8
-6.0798912 0.19280778 5.0252519 7
-1.8776163 0.14830047 5.1190596 7
-8.234993 0.22962028 5.1646652 8
-6.0920296 0.25145632 5.0309539 7
-5.7871017 0.30809051 5.1624746 8
-1.896893 0.31719896 5.1757393 8
-6.1121497 0.44031966 5.0664783 8
-5.9023061 0.47138917 5.1313577 8
-5.7831006 0.59773099 5.1805959 9
-1.8548166 0.48105326 5.1360316 9
-6.208106 0.6622352 5.039629 9
-5.9024477 0.71054679 5.1079111 9.181818
-5.7648172 0.73133302 5.1703396 10
-1.8028905 0.70531285 5.0178027 10.333333
-5.8813467 0.90272421 5.1240153 10.461538
-5.7515488 0.94143295 5.1515598 11
-6.0116763 1.018599 5.1802664 11
-5.917026 1.1094314 5.1445241 11.375
-1.2649288 1.136781 5.0082836 12
-0.78069752 1.1469787 5.0300426 12
-6.0416451 1.2337999 5.0376558 11.5
-5.9620414 1.2194819 5.1219945 12
-1.0900607 1.4641161 5.088593 13.75
-7.9115548 1.940045 5.1570225 11.5
-7.7676897 1.9686184 5.0954456 14
-8.4460649 2.353642 5.1005917 10
-7.7199636 2.2543001 5.1216536 13
-8.4913282 2.5297618 5.0137691 11
-8.3699837 2.5627911 5.1319809 11
-7.8079772 2.5721412 5.0185909 11
-38.343521 2.7754409 5.1219959 10
-40.482899 3.0096164 5.1855421 10
-41.213737 3.3073974 5.1893702 10
-39.932976 5.3490362 5.1751328 10
-39.743015 5.7029886 5.0947237 12
23.708374 5.6684513 5.0007763 12
-1.9030424 0.19797686 5.2094908 7
-8.4718437 0.354352 5.3732834 8
-5.8755598 0.36861509 5.3310413 8
-1.9406881 0.3854757 5.2994981 8
-8.4017982 0.41439098 5.3595181 8
-8.1503162 0.42485809 5.2498589 8
-5.84764 0.48688522 5.2982359 8.1428576
-5.7833629 0.49416196 5.2388487 8
-1.8821359 0.56644714 5.3414135 9
-6.0349069 0.78699273 5.2217698 10
-5.8975081 0.72281653 5.2666535 9.416667
-8.2354832 0.86752379 5.3550611 9
-8.0890284 0.95596886 5.2975216 9
-5.8922577 0.92200631 5.293961 10.2
-1.8760539 0.91943383 5.3997555 11
-8.1797256 1.0449325 5.2565327 9
-5.9087553 1.1047366 5.3092928 11.3
-11.096994 1.2313032 5.382822 10
-8.6634693 1.3161079 5.3635426 9
-8.2494726 1.3127546 5.3406959 9.333333
-8.1683388 1.2072268 5.3894491 9
-5.9543571 1.2139854 5.3964243 12
-8.2864313 1.5344949 5.3561783 10
-8.1517105 1.5070091 5.3515015 11
-7.9642906 1.5264244 5.3588352 10
-11.143837 1.6030061 5.3369818 11
-8.4012928 1.7048259 5.3364239 10
-8.3012915 1.7547203 5.3685632 10.833333
-8.160244 1.7361615 5.3235922 11
-7.9245963 1.7544665 5.3882136 12
-11.210538 1.9574226 5.3698244 12
-8.2132797 1.924008 5.342556 10.666667
-8.1103926 1.8862015 5.2719483 12.333333
-7.9695435 1.8915266 5.3011503 12
-8.238656 2.0424802 5.3644505 12.666667
-7.9126768 2.114207 5.3094249 11.4
-11.261805 2.3035588 5.3363047 13
-11.192204 2.3612871 5.3756261 13
-8.3588495 2.2014565 5.2015533 11
-8.0212669 2.2771456 5.3924751 15
-7.9357786 2.3073411 5.3231411 11.5
-11.292058 2.4964886 5.2890592 13.5
-8.3229313 2.5092077 5.2150688 11
-8.1461411 2.5360196 5.3281393 12
-7.9268622 2.5152826 5.2733884 10.666667
-11.284896 2.6977615 5.3478289 14
-8.2110872 2.6317654 5.2973022 13
-40.173569 5.4745564 5.2283325 11
66.566292 9.0278358 5.3392715 12
-1.0903926 0.036055207 5.4891047 6
-11.085313 0.38051808 5.5246992 8
-8.4524565 0.38219455 5.4810743 8
-8.2290611 0.36710048 5.435585 8
-8.0702477 0.33037153 5.5236192 8
-7.8884106 0.33223927 5.5590076 8
-5.7913918 0.32557142 5.4682398 8
-11.077009 0.47271913 5.5353966 8
-10.980394 0.59830451 5.5709896 9
-8.6762066 0.43459547 5.434597 8
-8.3079624 0.47571188 5.4766836 8
-8.1569748 0.46167979 5.5053749 8
-5.8641925 0.47459581 5.4779716 8.3846149
-2.2223072 0.5671882 5.5504894 9
-2.0163298 0.56646502 5.4167595 9
-1.2775956 0.41971236 5.5297637 8
-1.0686365 0.42161247 5.5092649 8
-11.017222 0.7526989 5.545208 9
-10.996367 0.74858505 5.5624609 9
-8.4461946 0.71109992 5.5133882 8.666667
-8.2714157 0.68376637 5.5307937 8.333333
-8.1336241 0.64725721 5.4905777 8
-6.1259499 0.71602762 5.5190887 9
-5.9071569 0.68446642 5.4941983 9.2666664
-2.2335095 0.74074054 5.4836206 10
-1.8764153 0.74326038 5.4013906 10
-1.3181944 0.70363718 5.5327191 9.5
-1.1480867 0.70490336 5.5399876 9.5
-11.083223 0.8665641 5.4177041 9
-10.975876 0.8972187 5.5604496 9.5
-6.1076164 0.84977973 5.5307693 10.2
-5.9076028 0.89993471 5.4983392 10.625
-2.1892505 0.91855359 5.4239335 11
-1.2591389 0.99270439 5.4393377 11
-11.051197 1.1277813 5.5092206 10
-8.4732742 1.0622945 5.5057654 9
-8.2940454 1.0781928 5.520597 9.666667
-8.1929607 1.0964139 5.4127645 9
-6.2338109 1.1286306 5.4922385 11
-6.0948882 1.0695857 5.5345216 11.333333
-5.9440002 1.0797851 5.4883647 11
-1.357618 1.1872181 5.4067497 12
-0.83669436 1.1846523 5.571754 12
-11.03744 1.3018851 5.5404096 10.666667
-8.4414845 1.2819815 5.4076118 9
-8.2900553 1.2704892 5.4866014 9.5
-8.1307573 1.3673271 5.4263639 11
-7.9669991 1.2722871 5.5891237 9
-6.1080871 1.223807 5.5006914 11.428572
-1.2810445 1.3802136 5.4382033 13
-1.1550009 1.3668536 5.5656166 13
-38.854687 1.5538336 5.5469875 9
-11.079985 1.5316417 5.4948468 11
-8.3544559 1.4938452 5.4561834 10
-8.1636581 1.4000664 5.5168171 9
-1.1750779 1.5575826 5.5700588 14
-11.083118 1.6786163 5.5042748 11.5
-8.2535172 1.6421669 5.4587393 11.5
-8.1509724 1.7053467 5.4670138 10.75
-7.9142303 1.6845176 5.5047531 10
-11.113457 1.9213408 5.499609 12
-8.2968235 1.9401009 5.457274 11.4
-11.231531 2.113744 5.4786386 13
-11.062767 2.0813339 5.5849729 12.333333
-8.3000345 2.1375096 5.4780073 11
-8.1022329 2.1281209 5.4548492 12
-11.161352 2.3225536 5.5014906 13
-8.2638988 2.2315526 5.544632 11
-8.0925226 2.3047876 5.4851928 12.75
-11.313515 2.5143847 5.4174871 14
-8.0931377 2.4514556 5.5094466 13.4
-11.264354 2.7496533 5.4484229 14
-40.595757 4.1169195 5.4483337 10
36.212765 9.8310375 5.5429878 13
36.814056 11.391035 5.4393921 14
-2.2473588 0.070459068 5.7482939 6
-6.4033861 0.37453371 5.6970663 8
-6.0510979 0.38614088 5.6788287 8
-2.2540722 0.31750643 5.6845179 7.5
-11.018161 0.46735841 5.635838 8
-10.942675 0.4241454 5.7427273 8
-8.1238594 0.51192456 5.7059274 8.333333
-7.9226761 0.49931121 5.6668267 8
-6.453289 0.59040862 5.6548862 9
-6.0982213 0.42850947 5.6690979 8
-5.9387054 0.4922058 5.681469 8.6000004
-10.99855 0.61018431 5.6786032 9
-7.9644485 0.6745615 5.6561818 8.333333
-6.5149899 0.64522463 5.6360855 9
-6.2496986 0.73916161 5.6756029 9.5
-6.0677376 0.73316264 5.6784897 9.5
-5.9810047 0.67666501 5.7121873 9.333333
-11.024614 0.97460532 5.6410179 10
-10.911474 0.85565579 5.7107601 9
-7.9003172 0.88792574 5.704565 9
-6.5306048 0.83590525 5.6664324 10
-6.35991 0.84786695 5.6844721 9.75
-6.0873184 0.93384224 5.691432 10.444445
-5.9503546 0.89930058 5.6229744 9.5
-7.8151278 1.0788946 5.7338753 9
-6.6675234 1.0438995 5.733882 11
-6.5324855 1.0556226 5.6367073 11
-6.3274574 1.1358347 5.7093024 11
-6.1182041 1.0816785 5.6845932 10.333333
-10.922862 1.2319745 5.7048192 10
-8.0585489 1.3147321 5.7109509 9.5
-7.9159241 1.3263931 5.662312 9.75
-6.5024071 1.2504046 5.6979241 12
-6.163137 1.2402999 5.6178346 12
-7.9184632 1.4525386 5.6574535 9
-10.941807 1.7019811 5.7789001 11
-11.129588 1.9955254 5.6331854 12
-10.91662 1.9530748 5.7886133 12
-10.941619 2.0462832 5.7738938 12
-11.189025 2.3773336 5.6296463 13
-11.069358 2.4835813 5.6550493 13
-40.023499 2.6029053 5.794014 9
-40.459663 4.1927929 5.7521458 10
66.403961 6.4255185 5.6024818 11
66.261154 7.1786389 5.6074944 10
36.621136 7.7899451 5.6776543 12
37.345009 7.9323277 5.6061974 12
-10.907079 0.39060581 5.8781323 8
-2.2769332 0.24233159 5.8469477 7
-11.071821 0.46458602 5.9171486 8
-10.925565 0.50245863 5.8592496 8
-6.6427698 0.55776966 5.8453455 9
-6.2015014 0.48144031 5.9104919 8
-6.1740885 0.43743598 5.8811331 8
-11.016315 0.79361647 5.983655 9
-10.88329 0.68134475 5.8839426 9
-6.8443713 0.64260089 5.9780445 9
-6.6439395 0.70477694 5.832674 9.5
-6.2488694 0.71475494 5.8146524 10
-6.0781574 0.62828749 5.8413162 9
-2.331821 0.69267637 5.894948 9.5
-1.4706874 0.67235625 5.8767877 9
-11.028203 0.90039974 5.9256549 9
-10.903906 0.92252129 5.8927302 9.3999996
-6.8681984 0.86551607 5.9644608 10
-6.6948485 0.87095386 5.8573375 10
-6.5354691 0.97436625 5.8956599 11
-6.3146954 0.89947104 5.8862309 10
-2.3273678 0.96042049 5.9094687 11
-2.0951595 0.95906317 5.9138756 11
-1.3747551 0.87001163 5.8951578 10
-11.046002 1.0370176 5.9267912 9
-10.864002 1.10672 5.8359146 10
-6.7170033 1.0819367 5.9196496 11
-6.4319286 1.1478196 5.9098177 11.5
-1.4149163 1.0644388 5.9194417 11
-11.036 1.2544384 5.9388599 10
-10.884972 1.2850764 5.8901339 10.5
-6.8354273 1.3362726 5.8973956 12
-6.7722969 1.2776185 5.8400364 12
-6.5544882 1.2774018 5.8554482 11
-6.3288336 1.2102783 5.8693256 10
-11.04989 1.5678856 5.9185944 10.25
-10.889109 1.5320446 5.8501549 11
-11.001109 1.609895 5.9166789 11
-10.920361 1.6563721 5.9169559 11.5
-11.076172 1.9252365 5.9535522 11.75
-10.935252 1.9201208 5.8928261 12
-11.026764 2.0033197 5.8594928 12
-10.914347 2.1740334 5.9445152 13
-10.933392 2.2750373 5.9123359 13
-40.519234 2.5927205 5.8406029 9
-11.022507 2.460197 5.948091 13.333333
-10.918753 2.5410178 5.998312 14
-10.913612 2.6846738 5.9758248 14
-40.96402 4.0996618 5.9359245 10
-41.557652 4.7390332 5.9455624 11
36.469421 8.0693359 5.8683701 12
36.456539 9.5914307 5.9006424 13
-2.1454742 0.082138658 6.0079761 6
-6.8191862 0.38557914 6.0078082 8
-6.556457 0.39931548 6.0684099 8
-2.0925655 0.25852221 6.008018 7
-11.029168 0.50580043 6.0604501 8
-10.993467 0.42038581 6.0242243 8
-6.508069 0.47131693 6.1072502 8
-2.1237001 0.43745273 6.1111746 8
-1.2875742 0.49065816 6.1941776 8
-10.935627 0.74370897 6.1180315 9
-7.2364683 0.78456688 6.1953325 9
-6.9071407 0.67757225 6.1118183 9
-6.7993808 0.68706548 6.1082478 9
-6.5309997 0.72623003 6.1890688 9
-2.129822 0.69373232 6.0534 9.5
-1.3228939 0.67568952 6.1165252 9
-1.1877067 0.67749524 6.0593596 9
-11.022946 0.89522332 6.0926385 9
-10.962378 0.97785211 6.0422001 9
-6.9470234 0.9151361 6.0605755 10
-6.7082896 0.93222046 6.1173224 10
-6.4159584 0.86380482 6.0038757 10
-1.1924968 0.8668437 6.1056533 10
-10.977856 1.1346514 6.053093 10
-6.874733 1.1276623 6.143116 10.666667
-6.6662412 1.0796459 6.1411014 10
-1.3052471 1.0562376 6.0747561 11
-1.1955494 1.0542448 6.138576 11
-10.946836 1.3124751 6.1051564 10.5
-7.0135417 1.2640719 6.1731825 10
-6.7274127 1.2516569 6.1494007 11
-1.2966306 1.2497389 6.0556984 12
-11.019464 1.5131434 6.0309258 11
-10.94551 1.4766788 6.0375023 10.5
-1.2355199 1.4345777 6.1283264 13
-11.089525 1.6808668 6.14996 11.5
-10.968821 1.6117272 6.0918112 11
-1.2373141 1.6250356 6.1413808 14
-11.116822 1.9176626 6.1034145 12
-11.06086 2.0083349 6.1083732 12
-10.974337 2.0824957 6.026278 13
-10.853535 2.2943602 6.0736217 12.75
-10.857201 2.4380708 6.0376654 14
-10.994056 2.726299 6.0581784 14
-41.532249 3.3706505 6.0898085 10
-40.765774 4.2909756 6.1130524 10
-41.692528 6.2447577 6.0279369 12
-1.3313347 0.121957 6.245904 6
-7.0550098 0.44983661 6.3548832 8
-6.9234681 0.48679519 6.3301759 8.1999998
-6.7140136 0.4558914 6.2978282 8
-10.902405 0.64152724 6.2751179 9
-7.0910892 0.74876684 6.2914701 9
-6.8917651 0.73815459 6.274714 9
-6.6084075 0.64213145 6.2195525 9
-2.4763589 0.66666406 6.3928695 9
-2.2218618 0.66787446 6.3985348 9
-10.912872 0.99538207 6.2462626 10
-7.4327631 0.83808613 6.3376675 9
-7.1014013 0.97129929 6.2527666 10
-6.9037566 0.95533961 6.2926273 10
-6.7320671 0.87002504 6.3145661 9.5
-2.1324167 0.84824955 6.3955445 10
-40.498917 1.1567433 6.3003254 8
-7.1334829 1.0791687 6.3040271 10
-6.9214706 1.0860755 6.2727232 10.5
-2.4823198 1.0333115 6.3496547 11
-2.1344707 1.0299979 6.3719797 11
-10.945414 1.2476494 6.2686119 10
-6.8744173 1.2703096 6.2389402 11
-2.1528337 1.2128782 6.3628483 12
-11.044076 1.6548769 6.2821722 11
-10.923428 2.1486604 6.2860851 12
31.54303 6.6617618 6.3152905 12
25.589758 7.2030754 6.3807974 14
37.100079 11.968927 6.3978081 14
-2.2212651 0.13193965 6.4607606 6
-2.1989701 0.3141129 6.4911599 7
-10.835318 0.56837285 6.4587002 8
-7.1611567 0.46409392 6.5056181 8
-6.8503656 0.4568612 6.473628 8
-2.3827457 0.48693696 6.4226828 8
-2.1773109 0.49076009 6.4657464 8
-1.3604212 0.49444917 6.4308314 8
-10.822376 0.60601079 6.5994668 8
-10.736145 0.62558615 6.5750494 8
-1.3823999 0.69168055 6.4650202 9
-10.720373 0.90920538 6.4693756 9
-7.2145915 0.80747032 6.4610128 9
-6.9127607 0.82163388 6.4244494 9
-2.4686754 0.84734809 6.4300628 10
-1.3030114 0.88597208 6.5827999 10
-7.193943 1.1609522 6.48036 10
-6.9772134 1.1557895 6.4363823 10
-1.4259723 1.0774775 6.5580058 11
-40.490414 1.2482668 6.4108753 8
-10.696076 1.2587781 6.5072107 10
-7.338037 1.2119906 6.413085 10
-6.995378 1.2061327 6.4230366 10
-1.2970519 1.4697336 6.5553398 13
-10.879147 2.1050775 6.5252781 11.666667
-10.794131 2.1901562 6.5994978 12
-10.705926 2.465457 6.5683146 12
-10.564609 2.4503846 6.5706539 12
-40.22694 2.7167337 6.4016552 9
-13.144104 2.6707036 6.5339375 10
-12.825221 2.6211724 6.5740471 10
-11.064373 2.6785493 6.5652418 12
25.783979 5.3425932 6.5650253 13
25.82769 6.1343751 6.5334311 13
25.83012 6.2356911 6.5843973 13
25.569256 7.066926 6.5149336 14
36.390427 7.9335594 6.5482616 12
29.63303 8.2877808 6.5250854 12
36.899773 10.085342 6.4963875 14
37.056938 11.7557 6.5013714 14
-12.949657 0.37876868 6.7200623 8
-1.2323232 0.32632869 6.7887239 7
-13.065621 0.40786552 6.7788219 8
-10.753901 0.59764737 6.7907662 8
-2.2784145 0.49764657 6.7784076 8
-13.067572 0.66814613 6.7327118 8
-10.673619 0.62479371 6.6432114 8
-1.2404441 0.69582939 6.67624 9
-10.514388 0.92544639 6.7542906 9
-13.064978 1.1299971 6.6782532 9
-1.2586551 1.0762104 6.6314473 11
-10.626527 1.2625766 6.6515746 10
-10.559794 1.3353322 6.7495785 10
-1.3079071 1.2675848 6.6223178 12
-13.050461 1.5460668 6.7773628 9
-12.932978 1.501335 6.7221413 9
-13.2498 1.7193401 6.7217178 9
-10.683473 1.7234707 6.7643242 11.5
-1.412634 1.6556301 6.6065636 14
-13.106745 1.9745482 6.6730862 10
-11.019393 1.9790773 6.7592983 10
-10.832417 1.9768859 6.7041626 11.5
-10.797129 1.8621624 6.6405687 12
-10.881823 2.0942738 6.6858125 11.2
-10.695011 2.1610832 6.6964436 11
-10.838398 2.2469468 6.6279526 10
-10.842799 2.5608735 6.7351813 11.5
-10.689914 2.5055306 6.6967149 12.833333
-10.589049 2.511627 6.7852187 13
-10.73336 2.614953 6.6516261 12
31.703045 4.2089853 6.7760363 10
25.771622 6.0834484 6.6848388 14
25.879147 6.3321843 6.616817 14
25.445107 7.0395541 6.7578726 14
26.059288 7.134357 6.6726561 15
26.06666 7.3177648 6.6814785 14
37.013329 9.4901476 6.7505341 13
36.883759 10.109604 6.6211314 14
37.02219 10.113197 6.7838974 13
36.980595 11.576318 6.6859751 15
37.092934 11.701383 6.6151009 14
-1.2513328 0.14660811 6.8509173 6
-10.621819 0.50269771 6.8841667 8
-10.537887 0.47366121 6.8617082 8
-2.4036384 0.498088 6.8207412 8
-10.716089 0.64256877 6.880147 8
-10.526436 0.70583075 6.9480758 8.666667
-2.4678597 0.68401527 6.8767762 9
-2.2675772 0.68497443 6.8525295 9
-10.497423 0.90912354 6.9050965 9
-2.2637558 0.86807895 6.8816695 10
-10.491203 1.0693151 6.9093485 10
-2.2944684 1.049117 6.9178271 11
-10.494967 1.2554247 6.8955927 10.25
-2.2079964 1.2345027 6.8847008 12
-10.533473 1.5317363 6.9242954 11
-2.2771339 1.4169695 6.9084983 13
-10.634054 1.6878219 6.8582072 11
-10.565041 1.6100057 6.961834 11
-11.126137 2.0266557 6.9310522 11
-10.958603 2.1841202 6.9001312 10
-11.306443 2.5436423 6.9131031 13
-10.996028 2.6247699 6.8320694 11
25.719584 6.209887 6.8906593 14
37.007683 7.6778183 6.8740635 12
25.065098 7.9499483 6.8550448 15
36.860031 9.1822462 6.8183022 13
-10.35597 0.0028167963 7.1180077 7
-10.267615 0.33433762 7.1077061 8
-2.6842108 0.50694799 7.1616926 8
-10.631676 0.64449877 7.0478406 8
-10.340692 0.64161342 7.1455383 8
-2.6504397 0.68641388 7.1412635 9
-10.59133 0.89109528 7.06458 9
-10.260316 0.9945851 7.1964383 10
-2.6644115 0.86797518 7.0718703 10
-10.426974 1.1905348 7.1877489 10
-1.6776868 1.1043502 7.139451 11
-10.4037 1.3163235 7.0289097 10
-10.396971 1.2562718 7.0316458 10
-1.6200645 1.3018878 7.1392021 12
-1.5625385 1.5028088 7.1247268 13
-10.567635 1.6448621 7.0725412 11
-11.529755 2.227839 7.1167822 12
-12.3792 2.7544613 7.1302948 11
-11.558533 2.6888952 7.0705462 13
25.564545 5.0919585 7.0494862 12
26.024164 5.3064008 7.016377 13
37.266563 6.3890672 7.1628046 11
32.580791 7.1506562 7.1917934 12
36.971531 8.0768909 7.0185051 12
-2.6328225 0.15995592 7.2758493 6
-12.480213 0.31344163 7.3322468 8
-12.148468 0.26541138 7.3178635 8
-10.297807 0.33627886 7.2335768 7.5
-2.6572452 0.33341295 7.2388864 7
-10.240625 0.43701091 7.2701674 8
-1.3498175 0.52747118 7.2713051 8
-10.322917 0.69764853 7.2444215 8.666667
-1.5785655 0.71481556 7.2070518 9
-1.3487685 0.71843415 7.2266979 9
-1.3521606 0.91046625 7.2506323 10
-10.289974 1.0831881 7.2610197 10
-1.5058066 1.1007738 7.2371688 11
-1.3530324 1.1031886 7.2433877 11
-10.43615 1.3472067 7.2253246 11
-10.325989 1.328182 7.3098135 10.5
-1.4909471 1.6837447 7.2487197 14
-12.094338 2.0630734 7.2594452 11
-11.851307 2.0954685 7.304143 11.5
-11.647251 2.5602026 7.2116146 13
-12.582705 2.6131501 7.3194466 10
-12.195106 2.6713047 7.2695847 12
-11.730597 2.6349583 7.2374926 13
32.471176 4.4888563 7.334425 10
27.814508 5.8731465 7.3472748 11
27.612728 8.7751389 7.3251133 13
36.787083 8.7697868 7.3993034 13
-12.278957 0.25315917 7.5995274 8
-10.26926 0.46965912 7.5461097 8
-10.118258 0.50192612 7.5354667 8
-10.25357 0.63431913 7.4579735 8
-10.089485 0.6788553 7.5984645 8
-2.6609011 0.70704877 7.4344778 9
-2.4531868 0.70884836 7.5426474 9
-10.205937 0.98342443 7.552619 9
-10.118977 0.91432679 7.5224347 9
-2.6885185 0.8943724 7.4842682 10
-2.4294691 0.89461851 7.4597936 10
-1.8246647 0.95306021 7.5124269 10
-10.158894 1.1245666 7.5087895 9.75
-2.7518117 1.0849298 7.442275 11
-2.417078 1.0842738 7.4097161 11
-1.8054841 1.1546884 7.531312 11
-12.596468 1.2816732 7.5526886 9
-10.259567 1.3119289 7.4832153 10
-10.184266 1.2674558 7.4606605 10
-2.3417821 1.2735102 7.4022899 12
-1.8057122 1.3521954 7.585423 12
-12.58601 1.5542992 7.5842295 10
-12.209364 1.5040213 7.5507584 9
-2.4112782 1.4595675 7.4413433 13
-12.519995 1.6685178 7.5684533 10
-12.344436 1.7640426 7.4782906 10
-12.472725 1.9450077 7.5457406 10
-12.531896 2.001514 7.5287895 10
-12.334927 2.0984657 7.522121 11
-12.191254 2.1638651 7.5727081 10
-12.780292 2.3079379 7.5057907 10
-12.272796 2.2910018 7.5454426 11
-12.155744 2.2125831 7.5292349 11
-12.332565 2.5306394 7.5491943 11.333333
-12.436863 2.6868482 7.4444637 11
-12.297376 2.6442485 7.4971256 10
37.060501 5.8963518 7.5719986 11
66.195358 7.2877188 7.4790015 10
37.504044 10.686598 7.5857143 14
-10.072155 0.38964182 7.7907572 8
-2.526314 0.35237378 7.7063241 7
-10.070994 0.50936353 7.6990356 8
-2.5263355 0.5295155 7.6627812 8
-1.6037329 0.56008285 7.7244349 8
-12.407731 0.63880354 7.7388973 8
-10.092495 0.6665535 7.6766958 8.25
-1.7410245 0.75287378 7.6750798 9
-10.094528 0.89058155 7.7125144 9
-1.6241837 0.95055991 7.687736 10
-10.106243 1.1193963 7.724041 10
-10.418384 1.2591388 7.7528076 10
-10.156489 1.2496125 7.7192702 9.8571424
-1.626973 1.3407202 7.724596 12
-10.573095 1.4109001 7.7792816 9
-1.6865411 1.5523819 7.6118503 13
-1.6109236 1.7288009 7.7769747 14
-12.464719 2.1271443 7.6282063 10
-12.261585 2.1923318 7.6634674 10
-12.47769 2.3371553 7.7780876 11
-12.488924 2.497395 7.7845287 11
-12.33002 2.5480123 7.641108 11.333333
32.699253 4.5494571 7.6966085 10
39.46851 4.9741321 7.704092 11
37.222736 6.4468212 7.7241821 11
36.713158 7.0951276 7.6954641 12
36.922489 8.1332874 7.770607 12
36.832836 8.6855965 7.6894827 13
36.85915 9.9484987 7.7830343 14
36.858597 10.131152 7.7428522 14
37.274261 11.517648 7.7351394 14.5
-1.648877 0.17789912 7.817039 6
-13.87014 0.50301313 7.9437294 8
-10.840249 0.53331691 7.9643245 8
-10.754738 0.5664854 7.9758406 8
-10.072762 0.50756985 7.8646545 8
-2.6582541 0.55308121 7.8467784 8
-1.7543774 0.58770031 7.9899154 8
-10.27238 0.65818769 7.9040728 8
-10.134657 0.69132787 7.8815207 8.3999996
-2.5836487 0.74710995 7.8773351 9
-10.459621 0.89193797 7.9854908 9
-10.343753 0.8804878 7.9639406 9
-10.129844 0.8614977 7.8372483 9
-2.5098243 0.93779403 7.9189162 10
-1.8976239 0.99104536 7.9936314 10
-12.142975 1.0770121 7.9323225 9
-10.515012 1.0182304 7.9819899 9
-10.271749 1.0933815 7.9424696 9.3999996
-10.139311 1.09147 7.8384094 9.5
-2.795414 1.1302545 7.9252157 11
-2.5459204 1.1280572 7.9249735 11
-10.41293 1.2949526 7.9015427 9
-10.317242 1.2661748 7.8945603 9.6000004
-10.018597 1.2416224 7.8322697 9
-14.02579 1.5065222 7.8579149 10
37.685158 5.5768614 7.9840832 11
32.043217 5.7655644 7.8465767 11
37.732609 5.8782358 7.876811 11
37.12294 6.5479441 7.8023777 11
38.949623 7.2162447 7.9939919 12
36.648346 8.5260859 7.9445953 13
37.697372 11.507149 7.8574677 14
-2.8243089 0.19145894 8.1305599 6
-2.8202686 0.37869257 8.1402092 7
-10.90723 0.49390578 8.0514927 8
-10.773636 0.48578918 8.1191998 8
-10.471906 0.51333445 8.1505175 8
-10.293408 0.4902055 8.0877552 8
-10.140236 0.52855891 8.0265036 8
-2.8136597 0.563456 8.1315155 8
-10.519966 0.67213035 8.0910683 8.25
-10.356448 0.68644732 8.1012259 8.333333
-2.807395 0.74772668 8.064085 9
-1.8562276 0.78914404 8.0130272 9
-1.6572453 0.79339588 8.1666727 9
-13.824797 0.99426901 8.0235233 9
-10.86485 0.89485103 8.1178646 9
-10.632585 0.93478262 8.1305599 9
-10.452307 0.89316541 8.0525455 9
-10.362383 0.85797179 8.0725346 9
-2.8191261 0.9362849 8.0050812 10
-1.6384684 0.9918853 8.1133499 10
-10.627243 1.0604577 8.1658878 9
-10.510117 1.0407549 8.1127596 9.333333
-10.355086 1.1078237 8.0299339 9
-1.8986814 1.1918666 8.0287523 11
-1.6397079 1.190856 8.112442 11
-11.384123 1.3203158 8.1204815 10
-11.032407 1.3654064 8.1405344 10
-10.590361 1.2239532 8.054369 10
-10.371865 1.2317605 8.0505524 9
-1.918605 1.3909403 8.0631466 12
-1.6415992 1.3883188 8.1364107 12
-1.8208185 1.5848072 8.140789 13
-1.8022286 1.7833829 8.1627121 14
66.190254 4.9454312 8.098074 9
37.804996 5.8834519 8.1723576 11
37.214237 7.2166409 8.0160713 12
37.217247 7.9300189 8.0361023 12
36.761108 8.5106068 8.1695004 13
37.500282 8.9506044 8.0734692 13
37.263901 11.553659 8.1676512 15
-2.7554004 0.39615864 8.3665829 7
-11.17219 0.55863827 8.2492447 8
-10.902205 0.51868308 8.2897778 8
-10.687422 0.50118792 8.3657303 8
-10.447401 0.54082084 8.2930098 8
-10.877266 0.68666887 8.2585907 8
-2.7491112 0.78184772 8.3504152 9
-11.2663 0.89828163 8.2532215 9
-10.891191 0.94234514 8.2840443 9
-10.760512 0.91333437 8.2471581 9
-2.5547876 0.97520638 8.3521833 10
-10.84724 1.0677094 8.3612595 9.5
-2.8604836 1.1675398 8.3730831 11
-2.5626986 1.1712257 8.2912369 11
-11.301306 1.305181 8.3023129 10
-11.07736 1.282917 8.3525591 10
-10.93907 1.3076799 8.3290215 10
-10.766461 1.2741466 8.2168722 9.5
-10.524663 1.219861 8.2144279 10
-12.02988 1.4592437 8.2730713 9
38.187382 5.8891177 8.3624077 11
37.488239 6.292129 8.3967285 11
37.479134 6.6876245 8.3705711 11
37.646225 7.2152467 8.3200703 12
36.860489 8.3578129 8.2138863 12
37.069653 9.8659801 8.2547455 13
37.544071 11.500993 8.2164478 15
-2.8276784 0.20389265 8.4006701 6
-11.206758 0.4943876 8.5598755 8
-11.065838 0.5159961 8.5263805 8
-10.899798 0.48063111 8.519763 8
-2.8551953 0.59018028 8.4158192 8
-2.7413144 0.59095931 8.4008331 8
-2.5625794 0.59470427 8.4352684 8
-11.127671 0.77939618 8.4784412 9
-10.845319 0.61580831 8.4653244 8
-2.8470278 0.78203207 8.4498463 9
-2.5651271 0.78368032 8.4124832 9
-11.424252 0.91423184 8.5694637 9
-11.248081 0.84450519 8.5387859 9
-11.105316 0.91034263 8.4656868 9
-10.969971 0.91907758 8.52355 9
-2.8478673 0.97239792 8.4435349 10
-11.651791 1.0350958 8.5269375 9
-11.545744 1.0761251 8.5819693 9
-11.264501 1.0982717 8.5071535 9.333333
-11.099281 1.0908508 8.4552765 9.5
-11.676264 1.2703301 8.5440683 9.25
-11.467317 1.2997861 8.5042248 10
-11.272794 1.2606688 8.4866638 9.5
38.223412 5.4375339 8.4703903 11
37.561172 6.2815142 8.5967369 11
36.997093 7.1840167 8.4366264 12
37.384151 8.0835562 8.4547977 12
36.936897 10.126545 8.4336739 13
37.413975 10.048529 8.5513077 14
37.4529 10.397651 8.5170956 14
-13.66154 0.5389601 8.6885014 8
-11.611609 0.4620558 8.616457 8
-11.503509 0.5428195 8.7003546 8
-11.346402 0.54365295 8.6441402 8
-11.15676 0.56484383 8.7100687 8
-1.9851522 0.57868665 8.6702347 8
-1.7439358 0.58165276 8.6526318 8
-11.862574 0.66356492 8.6368599 8
-11.628185 0.63155478 8.618309 8
-11.55378 0.6417588 8.6942806 8
-11.236721 0.62437451 8.6131973 8
-1.9460686 0.77988875 8.7074909 9
-1.7276412 0.78304863 8.6831923 9
-11.521581 0.91355586 8.6017008 9
-11.247496 0.92113072 8.6553326 9
-1.9690856 0.98033774 8.6211796 10
-1.6903437 0.98313487 8.6893063 10
-13.885752 1.1168582 8.7865906 9
-13.647892 1.1154159 8.6707039 9
-11.605366 1.0882406 8.6212969 9
-11.575508 1.1412928 8.6613102 9
-1.8898522 1.1798246 8.6840239 11
-1.6916919 1.1830523 8.6855774 11
-14.384303 1.2839096 8.6839828 9
-13.84379 1.223487 8.7547998 9
-13.687864 1.2286439 8.731514 9
-11.605598 1.2286627 8.697052 9
-11.478456 1.2989812 8.6734753 9
-1.9513166 1.3839414 8.6383247 12
-1.6741148 1.3811145 8.7172699 12
-1.8738005 1.5901963 8.6259518 13
-1.6752365 1.5896385 8.6580534 13
-1.7957484 1.7726092 8.7759819 14
37.329575 7.7025909 8.7210245 12
-14.161654 0.41742229 8.8975353 8
-13.942909 0.47133577 8.8804436 8
-13.676189 0.58482921 8.8477287 8
-2.7642255 0.57494712 8.8262215 8
-13.665148 0.64039367 8.8011103 8
-11.581739 0.63381791 8.8069935 8
-2.754756 0.7730298 8.8756409 9
-2.4746239 0.77593625 8.9262199 9
-2.8260643 0.96751165 8.917099 10
-2.479903 0.96915197 8.8875141 10
-2.146364 0.83181775 8.9627409 9
-13.840843 1.1427801 8.9348412 9
-2.8315101 1.1643555 8.8812218 11
-2.2112613 1.2538979 8.9371986 11
38.303104 5.6531129 8.803957 11
37.535809 8.2546453 8.8590508 12
37.228664 9.7564259 8.9830933 14
-14.238526 -0.0022941828 9.0343323 7
-14.523304 0.44954872 9.1494694 8
-14.317966 0.59339625 9.0476112 8
-14.069771 0.52876544 9.0611439 8
-13.987725 0.58745944 9.0344934 8
-2.5171978 0.495646 9.0662851 7.5
-14.598274 0.63164258 9.1708078 8
-14.055597 0.62197983 9.0211029 8
-1.8298554 0.63337553 9.1236801 8
-1.8123171 0.83881903 9.1827126 9
-14.843035 1.1463205 9.1764851 9
-2.2061341 1.0401452 9.0117178 10
-15.2089 1.3244426 9.1978283 9
-14.697001 1.238519 9.1464329 9
-14.59127 1.2971267 9.1945972 9
-2.081409 1.2459275 9.0891914 11
-2.1005383 1.4477469 9.1420345 12
39.435146 5.1216807 9.1393051 10
37.783554 8.1818037 9.010643 13
38.164513 8.3231564 9.0079994 12
40.284428 9.1721163 9.1013794 13
37.477226 9.8785648 9.1233931 13
-14.662795 0.55548054 9.3556633 8
-14.435349 0.55176663 9.2132568 8
-14.071699 0.58360231 9.2347422 8
-2.6044016 0.62915295 9.3111038 8
-2.618392 0.82914257 9.3539391 9
-2.5017433 0.83030784 9.3476915 9
-14.950574 1.1730098 9.365716 9
-14.646302 1.1277542 9.290205 9
-14.477489 1.1206708 9.2898064 9
-2.4786975 1.0274329 9.3850212 10
-2.0559371 1.0368972 9.2032604 10
-1.8340671 1.0398202 9.2245255 10
-15.107806 1.2294625 9.3479824 9
-14.909747 1.2277907 9.3220682 9
-2.4659376 1.2282912 9.3219433 11
-1.8355358 1.2404273 9.2375126 11
-2.038008 1.6391641 9.2625141 13
-2.0384347 1.8400682 9.2825756 14
38.00127 6.5694718 9.2208786 11
66.012474 7.3913741 9.379941 10
38.172329 7.6517816 9.2242632 12
38.350189 7.7544894 9.2064047 12
37.71096 10.032588 9.3876038 13
37.163277 10.22637 9.3621597 14
37.365284 10.404707 9.3889256 14
-15.105782 0.52201557 9.484396 8
-14.774867 0.59518397 9.5078812 8
-14.367807 0.58723867 9.4101133 8
-14.954406 0.6395731 9.4089241 8
-2.7677109 0.82930458 9.5379343 9
-2.7820802 1.0242383 9.4486256 10
-2.6603229 1.2223721 9.4139185 11
38.192661 6.3347974 9.5703421 11
40.038799 7.3867722 9.5291233 12
38.385448 7.7935801 9.4550142 12
38.267086 7.9206829 9.4507084 13
38.429401 8.2490702 9.5942192 12
37.458858 9.2174072 9.4036007 13
37.834412 10.23577 9.4454651 14
37.357857 10.424757 9.419795 14
-2.7661953 0.45625454 9.7066793 7
-2.7950358 0.63918388 9.6086235 8
-2.1727581 0.91149217 9.6734352 9
-2.1731341 1.1178702 9.7341938 10
-1.9481938 1.1223564 9.7715874 10
-2.1978285 1.3256148 9.7091446 11
-1.9109106 1.3296063 9.7557716 11
-2.1985784 1.5292988 9.7562275 12
-2.1245263 1.9445355 9.7837086 14
38.195831 6.1211209 9.6097631 11
38.053806 8.9840431 9.6222439 13
38.236588 9.1853485 9.6215677 13
-2.7992475 0.49731705 9.960907 7
-2.8652883 0.69449931 9.9026814 8
-2.0405149 0.71430284 9.8739452 8
-2.8755078 0.89739549 9.9723091 9
-1.9435163 0.91794789 9.8286991 9
-2.8772161 1.0976009 9.9767408 10
-2.8841431 1.3002489 9.944603 11
-2.6025741 1.3027117 9.949296 11
-1.934551 1.526818 9.8425627 12
-2.0584543 1.7247672 9.8714848 13
38.729153 7.8559375 9.8646021 12
38.15625 9.2111177 9.9287672 13
-2.6068769 0.51029015 10.061195 7
-2.5765266 0.70947647 10.108389 8
-2.5789974 0.90370309 10.104072 9
-19.45368 1.006761 10.16593 8
-2.5711708 1.1007866 10.020891 10
-19.771326 1.7636832 10.087032 9
-19.573631 1.6540153 10.123377 9
40.313393 10.344614 10.067146 14
-2.6179566 0.71575117 10.393978 8
-2.2106521 0.72385669 10.389238 8
-2.2560234 0.92608619 10.330811 9
-1.9919465 0.93123925 10.260246 9
-19.437351 1.1041106 10.345596 8
-2.2203984 1.1339319 10.271982 10
-1.9745221 1.138291 10.289192 10
-2.225409 1.346419 10.200336 11
-1.9767423 1.3422087 10.335279 11
-2.2248778 1.5520699 10.255657 12
-2.0826001 1.7514839 10.355762 13
39.234104 8.4267302 10.30162 13
-2.8228784 0.51005852 10.448411 7
-2.9069607 0.71508062 10.522329 8
-2.7747478 0.71490145 10.451795 8
-2.9025285 0.91635954 10.551296 9
-2.7106583 0.91882747 10.481236 9
-19.383148 1.1060091 10.502704 8
-2.9107432 1.1175539 10.510415 10
-2.6099467 1.1211026 10.491531 10
-2.3998413 1.144943 10.574495 10
-2.9036732 1.3245633 10.431826 11
-2.637578 1.3256704 10.435858 11
-2.4004374 1.3584712 10.579866 11
-2.3818102 1.5757797 10.553707 12
-19.586905 1.7842172 10.499678 9
66.708183 5.4686098 10.596685 9
40.409245 6.9249511 10.565836 12
-19.203724 0.51441061 10.605017 8
-2.2665939 0.72347319 10.651472 8
-2.0786052 0.72545326 10.618887 8
-2.2884448 0.93386483 10.65894 9
-2.0585158 0.93802881 10.689395 9
-19.248133 1.0589875 10.707476 8
-19.186531 1.0268757 10.792398 8
-2.1429937 1.1446261 10.728945 10
-19.263336 1.2370248 10.732915 9
-2.1856184 1.3506982 10.750491 11
-2.0638578 1.5606976 10.753176 12
-19.379063 1.7122009 10.739309 9
-2.1481884 1.7677367 10.761927 13
-2.1915121 1.9839799 10.728673 14
-19.068064 0.61273807 10.938473 8
-2.9721649 0.7259897 10.984659 8
-2.7917523 0.72190392 10.822523 8
-2.914166 0.9274587 10.896318 9
-2.7242041 0.9294076 10.874949 9
-19.224237 1.1308649 10.90927 8
-2.9813309 1.1305488 10.925389 10
-2.7224376 1.1330398 10.890474 10
-2.9802027 1.3405534 10.824718 11
-2.7288499 1.3399761 10.839712 11
-19.402601 1.7864501 10.962948 9
-19.362949 1.7119613 10.886024 9
66.72377 3.9853959 10.868325 8
66.751724 7.9209557 10.939802 10
-2.9116287 0.52933699 11.040062 7
-2.1454523 0.76226616 11.130497 8
-2.2122674 0.97829086 11.150545 9
-19.026705 1.0239007 11.11672 8
-19.208925 1.7135112 11.154835 9
-2.944334 0.97008264 11.325022 9
-1.9765477 0.98408473 11.347576 9
-19.095705 1.1607283 11.376532 8
-3.0234852 1.1811185 11.3673 10
-2.2123213 1.1927512 11.216379 10
-1.9792235 1.1944804 11.301475 10
-3.0208211 1.3921621 11.379843 11
-2.2136545 1.4070621 11.215708 11
-1.9810967 1.403388 11.338684 11
-3.0250392 1.6069984 11.352533 12
-2.2121716 1.6147395 11.294161 12
-1.9828343 1.6170095 11.309427 12
-19.373507 1.8332845 11.222233 9
66.613258 4.295568 11.216575 10
-2.7268932 0.97429097 11.530767 9
-2.6997159 1.1815581 11.424327 10
-2.6934295 1.3865366 11.478655 11
-19.228945 1.8376582 11.433622 9
66.715424 6.869401 11.479301 11
66.684334 9.4282684 11.525125 12
-2.7333989 0.57730359 11.692816 7
-2.0123351 0.586905 11.658558 7
-2.8229804 0.79408222 11.74995 8
-2.7547443 0.77374423 11.630606 8
-18.731005 1.1817057 11.764498 9
-2.78055 1.0097005 11.758579 9
-2.0331097 1.0221289 11.752535 9
-3.1655018 1.2205819 11.782619 10
-2.7805929 1.2236845 11.774847 10
-2.2690501 1.2324851 11.71675 10
-2.3792682 1.4494829 11.664759 11
-19.03031 1.7989695 11.662345 10
-3.2315207 1.6541811 11.773886 12
-2.3387201 1.6728587 11.61974 12
-1.9562972 1.6653404 11.77371 12
66.649696 4.0041075 11.748934 8
-18.601109 0.58993757 11.952039 8
-3.1065273 0.58618569 11.929274 7
-2.8831158 0.58445454 11.84547 7
-3.1097262 0.79950094 11.995781 8
-2.9641442 0.79480314 11.824198 8
-2.2019274 0.81115788 11.902822 8
-18.823149 1.1864852 11.879572 8
-18.660782 1.0529876 11.946783 8
-3.1162102 1.0068986 11.953011 9
-2.9837179 1.0076435 11.839445 9
-2.203783 1.0193259 11.833986 9
-2.0587842 1.2338278 11.808443 10
-3.2230005 1.4336293 11.825879 11
-2.7885649 1.4291058 11.913616 11
-2.0822096 1.4445357 11.825835 11
-18.988701 1.7352443 11.894525 9
-2.1073141 1.8697143 11.833589 13
66.59404 4.2463646 11.947974 8
66.648438 8.9680872 11.978149 10
-18.549181 0.49630272 12.124838 8
-18.541651 0.67170227 12.1723 8
-18.618048 1.046404 12.040758 8
-18.570908 1.1422008 12.19591 8
-18.637915 1.2899463 12.153624 9
-18.93218 1.7445786 12.137457 9
-18.768158 1.7786038 12.08626 9
-18.999666 1.857219 12.067127 9
66.593193 4.0429564 12.198409 8
-18.711243 0.24568182 12.31461 7
-18.708025 0.86554307 12.344485 8
-3.1375763 0.84802127 12.381793 8
-2.8669701 0.8505128 12.270221 8
-2.0396767 0.87129867 12.263597 8
-18.622618 1.1633297 12.259885 8
-3.1494794 1.0635505 12.392857 9
-2.2828074 1.0829902 12.373283 9
-2.0468276 1.0894014 12.335742 9
-3.23018 1.2783682 12.37546 10
-2.2868872 1.2996609 12.299011 10
-2.0530972 1.3039525 12.365433 10
-18.816973 1.4586225 12.268881 9
-3.3409913 1.4944394 12.374995 11
-2.2691092 1.5151404 12.332483 11
-18.822203 1.6657943 12.291502 9
-2.0811558 1.7346869 12.364664 12
-2.2773998 1.949636 12.341887 13
-18.918671 0.50358069 12.419678 8
-3.1328447 0.63769424 12.465431 7
-2.2376001 0.87264144 12.449503 8
-18.878407 1.1625284 12.416125 9
-2.9422839 1.0676072 12.415489 9
-2.9451861 1.2811792 12.418966 10
-3.2058752 1.4933803 12.404829 11
-2.058856 1.5160279 12.408569 11
-3.151536 0.8638984 12.724379 8
-3.2167623 1.0857828 12.743995 9
-2.2894878 1.1045821 12.722507 9
-3.2407913 1.307801 12.750443 10
-2.2940235 1.3253102 12.74439 10
-2.2972035 1.5462213 12.750013 11
-19.690899 1.7196238 12.718399 9
-3.2661848 1.7548859 12.747831 12
-2.3227005 1.7637556 12.788805 12
-2.9545465 0.66315651 12.980895 7
-19.962074 0.94426978 12.969172 8
-2.9507852 0.87637353 12.95891 8
-2.0747676 0.89517701 12.926099 8
-2.9561877 1.0903777 12.919114 9
-2.0545256 1.110476 12.867702 9
-3.0493093 1.306072 12.873096 10
-2.0566785 1.3281264 12.843657 10
-3.2540996 1.5254279 12.825768 11
-2.9190273 1.5233558 12.904293 11
-2.061223 1.5462873 12.843136 11
-2.1946309 1.7616642 12.842063 12
-2.2404029 1.9853344 12.811844 13
-2.9812992 0.87809378 13.081469 8
-2.0794983 0.89902687 13.132254 8
-2.8879404 1.1073829 13.170641 9
-3.2072754 1.3279134 13.135126 10
-2.2694016 1.3431 13.196844 10
-3.231617 1.7812512 13.140912 12
-2.3403192 1.794884 13.138533 12
-3.1604052 0.66896802 13.392494 7
-3.1626582 0.88335598 13.309776 8
-3.1666861 1.1030848 13.283012 9
-2.2475283 1.1211483 13.30658 9
-2.0893831 1.1246718 13.23142 9
-2.9295816 1.328908 13.226048 10
-2.0972686 1.3448186 13.284403 10
-3.1787198 1.550202 13.203012 11
-2.8830264 1.5464162 13.311838 11
-2.2309296 1.563197 13.261599 11
-2.0378404 1.7912972 13.262949 12
-2.1323464 2.0046191 13.318489 13
-3.0043206 0.67572486 13.436268 7
-2.4641209 1.6232774 13.591359 11
-2.9114866 0.46375906 13.640553 6
-3.0703788 0.6941874 13.695431 7
-3.1582079 0.91883558 13.663786 8
-2.3449328 0.94077921 13.762885 8
-3.1568978 1.1472967 13.701379 9
-2.906786 1.1522672 13.760927 9
-2.4111171 1.1634943 13.61257 9
-2.1050713 1.1715285 13.77063 9
-3.1590295 1.3744216 13.699076 10
-2.3929725 1.3933069 13.619334 10
-3.1664553 1.6054785 13.649114 11
-2.8887622 1.6007024 13.779963 11
-2.0188105 1.627316 13.72816 11
-3.1883636 1.8325272 13.680548 12
-2.357666 1.8459663 13.708826 12
-2.0742521 1.8468134 13.791317 12
9.0151196 3.4192798 13.789731 13
9.0474215 4.4470816 13.769513 15
-2.9245083 0.92913806 13.810961 8
-2.1037183 0.94824594 13.809717 8
-2.9964471 1.3736267 13.801838 10
-2.0914462 1.3947005 13.825612 10
-2.3136859 1.6123006 13.808663 11
-2.2383816 2.0564716 13.874151 13
8.9873018 3.9082162 13.949018 15
75.317047 4.6950445 13.967829 9
-3.1544094 0.9484446 14.051828 8
-3.1498401 1.1810412 14.163366 9
-2.4237795 1.1976268 14.141556 9
-3.1527572 1.4092731 14.171207 10
-2.4288363 1.4265845 14.147551 10
-2.0671144 1.6679218 14.151456 11
-3.2039077 1.8692446 14.153754 12
-2.4359736 1.8872211 14.143836 12
9.4543848 3.0423849 14.070097 13
9.0422707 3.4600976 14.067335 14
75.344078 7.401732 14.057793 10
-2.9597087 0.96222317 14.321229 8
-2.2528305 0.98032355 14.365013 8
-2.8961358 1.1863767 14.29958 9
-2.1861348 1.2040398 14.295063 9
-2.194195 1.8860004 14.235291 12
-2.313905 2.1024437 14.299231 13
9.3833008 3.2894688 14.294397 13
8.8284512 4.06637 14.383549 15
75.220589 12.085582 14.258736 11
8.9995193 3.2828767 14.497017 13
8.7391987 3.6527414 14.474876 14
75.0504 9.3502903 14.417399 10
-3.0039964 1.005772 14.622412 8
-2.9148793 1.242825 14.699503 9
-3.1955435 1.4663072 14.709761 10
-2.9196014 1.4732729 14.739561 10
-2.4640586 1.4885772 14.752676 10
-3.2007046 1.7001394 14.695934 11
-2.466912 1.7236705 14.709211 11
-3.2089496 1.9433464 14.618897 12
-2.4715395 1.9600635 14.692001 12
-2.1798692 1.962635 14.788489 12
-2.2050865 2.2033117 14.739436 13
8.9597626 3.2597461 14.614753 13
7.8666 4.2566953 14.652826 13
6.5720491 4.5320954 14.657253 14
6.6348639 5.0808144 14.638068 15
-3.2017951 1.005533 14.850693 8
-2.485229 1.0302933 14.918511 8
-3.2083986 1.2329048 14.804663 9
-2.441648 1.2573937 14.859883 9
-2.1868639 1.2671038 14.818714 9
-2.2404168 1.4937764 14.835968 10
-2.2713888 1.7210712 14.847666 11
-2.3761578 2.1764116 14.861588 13
6.8371201 4.0997553 14.956073 13
8.641592 4.1242619 14.900743 15
-3.236547 1.051365 15.103201 8
-3.2401271 1.2887657 15.139688 9
-2.5375681 1.3114524 15.155287 9
-3.245975 1.5252984 15.1425 10
-2.9656484 1.5348339 15.122034 10
-2.5918193 1.5462413 15.156852 10
-2.6220138 1.7812911 15.172503 11
8.6839275 3.1745634 15.194371 13
8.9089842 3.1686611 15.005879 13
8.6315193 3.7649796 15.165899 12
6.9130607 3.8140206 15.022067 12
-3.0728536 0.83180124 15.335608 7
-2.3810592 0.84963757 15.278652 7
-3.0467868 1.0623935 15.322054 8
-2.4933178 1.0788693 15.267828 8
-2.3055105 1.084638 15.249529 8
-3.028852 1.2940794 15.240683 9
-2.2916808 1.3189213 15.282734 9
-2.3043544 1.5493728 15.3332 10
-2.4665561 2.0216956 15.212419 12
-2.4386501 2.2423449 15.344632 13
9.674448 3.2844634 15.294217 12.5
8.7704935 3.710624 15.271111 14
64.247398 10.990492 15.217978 12
64.577171 13.439499 15.345034 13
-3.0810175 0.81676877 15.539932 7
-3.0306234 1.0569251 15.49861 8
-3.3276653 1.5281396 15.516364 10
-3.0440106 1.5350595 15.564926 10
-3.3340573 1.7730342 15.463259 11
6.6595192 3.8831582 15.568314 15
75.168121 4.8100076 15.562243 9
63.460697 8.5754757 15.48794 11
-3.3140206 1.0511297 15.622067 8
-3.3190455 1.2873145 15.620016 9
-2.3649888 1.3192923 15.722064 9
-2.4429238 1.5509323 15.72035 10
-3.0754075 1.7603029 15.72859 11
-2.5844419 1.7846386 15.660501 11
-2.375351 1.7916343 15.691286 11
-2.4655042 2.257103 15.74237 13
9.5173492 2.7304006 15.603033 11
8.8975067 3.2530193 15.746526 12
6.8106804 3.5648851 15.696201 14
6.7634277 3.6223776 15.791734 13
8.0775433 3.6933143 15.651291 14
6.5838165 3.979558 15.755259 15
6.9901352 3.8163679 15.688019 13
8.063818 3.8936615 15.752632 15
-3.171411 0.97813261 15.876047 8
-2.3985271 0.85621524 15.844936 7
-2.3684273 1.0866932 15.803231 8
-3.3717544 1.2205062 15.970636 9
-3.0925136 1.2290276 15.965017 9
-3.4116154 1.9535267 15.990417 12
8.2748489 3.1285987 15.947457 12.5
6.9143314 3.3108616 15.89326 13
7.1778507 3.311172 15.804087 12
8.2522364 3.2629392 15.957997 13
8.8431835 3.292995 15.937212 12
6.6429186 3.5696516 15.879026 14
8.1262398 3.5211959 15.86416 13.5
6.5635805 3.9164448 15.800991 15
-3.3404102 0.98313576 16.135489 8
-2.3516877 1.0110322 16.060146 8
-2.3478408 1.2554047 16.163467 9
-3.3769341 1.4633039 16.025875 10
-3.0169265 1.4746041 16.024525 10
-2.3597 1.4942529 16.192444 10
-3.4053845 1.7040277 16.051888 11
-3.0263748 1.7103028 16.138046 11
-2.6172557 1.7306463 16.068237 11
-2.6483495 1.9727899 16.074286 12
9.0545025 2.7802293 16.145823 11
9.2429543 2.7869093 16.126026 11
6.8966322 3.1762526 16.147245 12
8.1865845 3.0509968 16.144316 12
6.8852 3.3168237 16.036676 13
8.1483641 3.4519687 16.059805 12
-3.3541136 1.0680201 16.329504 8
-2.5862377 1.0096581 16.217785 8
-2.5757313 1.2476032 16.274885 9
-2.3068752 1.9739792 16.230042 12
8.1410208 2.7857916 16.237673 12
-3.063314 1.0827572 16.526739 8
-3.3592651 1.3193598 16.452196 9
-3.1424279 1.3255975 16.540592 9
-2.770752 1.3380378 16.471478 9
7.7304649 1.2850516 16.574169 9
7.8053503 1.2689662 16.511208 8
-3.365345 1.5670881 16.449589 10
-3.0725782 1.5756797 16.467091 10
-2.7306945 1.5861335 16.511387 10
7.8577576 1.4957969 16.579571 8
7.7574553 1.6797911 16.554398 9
7.8700237 1.6835028 16.596685 9
-3.3702345 1.8131459 16.481581 11
-2.7886431 1.8299569 16.530802 11
7.9746542 1.8013825 16.543112 9
-2.6535442 2.0777376 16.589628 12
7.8686733 2.0757263 16.547869 10
7.936367 2.3277917 16.552031 10.333333
8.0101814 2.3783951 16.59371 10
7.9460735 2.5044072 16.572119 11
8.0103588 2.401248 16.592798 11
7.9080381 2.7152715 16.517776 11.5
8.0219612 2.6460457 16.508488 11
7.9142976 2.8417597 16.543051 11.166667
7.7382016 3.0707669 16.506224 13
7.8569779 3.1273389 16.544344 12
7.7664981 3.3764651 16.464378 11
8.1023197 3.3510778 16.589382 12
8.0240335 3.4384835 16.557766 11
7.1473541 3.8096759 16.594654 15
-3.1924403 0.84406883 16.693316 7
-2.6708465 0.86185956 16.739449 7
-2.5932367 1.1029851 16.713127 8
-2.6464534 1.3413986 16.704811 9
-2.5034857 1.3464811 16.709877 9
7.6286407 1.3221068 16.71137 8.166667
-2.513571 1.5857751 16.741049 10
7.5984316 1.4084277 16.737749 8
7.6746726 1.4662215 16.729582 8
7.7430472 1.7217382 16.701504 9
7.8550463 1.6931387 16.667463 9
8.0227518 1.7268692 16.68128 9.333333
-2.6604257 1.8217944 16.713861 11
-2.4747519 1.8270435 16.754974 11
7.7663713 1.882282 16.737957 9.3999996
7.8367586 1.9130859 16.671453 9.1999998
-2.4939876 2.0768678 16.669249 12
7.7222176 2.1291003 16.753113 10
7.9037561 2.0796435 16.683439 10.076923
-2.6503568 2.307672 16.719582 13
7.7552624 2.2657452 16.776043 9.5
7.8859086 2.3164573 16.725918 10.545455
8.0361576 2.2516322 16.678848 9.5
7.9524732 2.4718544 16.693468 10.818182
7.7795897 2.6819677 16.778284 11.5
7.8811421 2.7494223 16.713224 11.5
8.0362473 2.6211855 16.71018 11
7.7572112 2.8637354 16.796961 10
7.9181075 2.853333 16.705456 11.6
7.735621 3.1840212 16.633072 13
7.9555202 3.1304679 16.677559 12.75
8.0350084 3.0106454 16.794724 12
8.0211134 3.3698747 16.780327 12
7.7799311 3.4894547 16.714941 12.5
7.9191551 3.6497974 16.651188 13
7.2234063 3.8522887 16.647377 15
6.4357567 4.1430573 16.762461 15
4.9050431 5.4515767 16.679806 15
-3.2038741 0.84873879 16.975391 7
7.2877774 1.2921112 16.835938 8
7.6665378 1.3447886 16.907539 8.166667
7.8455377 1.3699775 16.954147 8
7.7039795 1.4904376 16.891447 8.333333
7.9279633 1.5430647 16.969728 8.666667
7.5365243 1.6195244 16.821405 8
7.739574 1.7049476 16.896591 9
7.8636007 1.7473373 16.962646 9.1999998
7.7639923 1.9397658 16.854286 9
7.8945837 1.8879913 16.950851 9
8.032383 1.9179538 16.983126 10
7.7697163 2.0766618 16.911657 9.833333
7.8508115 2.0921547 16.926416 9.916667
8.0024891 2.074698 16.987213 10
7.7848196 2.3100343 16.884436 10.4
