# .PCD v0.7 - Point Cloud Data file format
VERSION 0.7
FIELDS x y z intensity
SIZE 4 4 4 4
TYPE F F F F
COUNT 1 1 1 1
WIDTH 1246
HEIGHT 1
VIEWPOINT 0 0 0 1 0 0 0
POINTS 1246
DATA ascii
-15.916925 4.9522266 52.589474 10.928775
-3.9081655 5.0835276 52.659218 15
0.50927162 4.8665972 52.57291 13.12825
-16.003948 5.2061539 52.515526 10
-15.904767 5.3644671 52.625652 11.964709
-3.8403587 5.2897954 52.546001 15.1585
-16.036501 5.8456769 52.44899 11
-15.926044 5.778336 52.588676 12.243413
-3.9017034 5.9006548 52.724022 15.106
-23.862309 6.1655955 52.538658 12.05375
-16.045277 6.2660952 52.459408 11.53775
-15.924769 6.1983938 52.589359 12.131963
-23.872604 6.6219664 52.602757 12.557
-16.022776 6.6211395 52.449146 11.666667
-15.924 6.5541682 52.627758 12.29842
-23.512398 7.0718069 52.657318 13.0605
-22.636333 7.0280018 52.531662 13.062
-22.002277 6.986475 52.504936 13.0635
-16.020748 7.0209389 52.448322 12.726143
-15.910392 6.949091 52.658138 12.956445
-16.012421 7.3823748 52.439587 12.5
-15.929596 7.3967118 52.625153 12.742761
-16.006672 7.8303404 52.495331 13.5
-15.940677 7.7701831 52.634121 12.763625
-16.022217 8.2280684 52.447247 12.666667
-15.938603 8.2114267 52.621113 12.673542
-16.026466 8.5845528 52.532654 14
-15.919796 8.5516768 52.657108 13
-15.935827 8.9816914 52.618492 13.272727
-16.039818 9.313489 52.491692 14
-15.942128 9.4401493 52.627811 13.714286
-16.025055 9.7605667 52.461769 13.5
-15.918193 9.7826529 52.633678 13.8
-16.030247 10.139908 52.492012 14.5
-15.920334 10.225019 52.659939 13.857142
-3.9534869 10.169349 52.50808 13.0905
-16.048838 10.558159 52.430649 14
-15.965406 10.63814 52.638683 14.4
-15.940819 11.024097 52.597363 14.666667
-16.02479 11.403539 52.449047 15
-15.930089 11.409051 52.669544 14.833333
-16.007879 11.904819 52.515564 15
-15.930546 11.626902 52.710636 15
-16.065924 12.008446 52.453133 15
-15.963736 12.21562 52.648891 15
17.085873 14.956326 52.603588 14.1035
18.38286 15.185241 52.562832 14.1045
55.14109 14.928236 52.733326 12.126
19.300585 15.576372 52.693333 15.106
16.622751 16.845522 52.765335 15.1035
12.147762 18.392088 52.474281 15.101
-6.9351969 2.7760322 52.944508 3.25
-6.7460785 2.7567766 53.010654 4
-15.744074 3.0472548 52.983742 6.173913
-14.96226 2.9058409 53.024048 5
-14.638824 2.8534513 52.996307 5
-14.225233 2.8925533 52.954517 5
-12.476067 2.891494 52.980186 4
-12.142896 2.8927612 53.059853 4
-11.837077 2.9040122 52.977005 4
-11.457074 2.9191122 52.939251 4
-11.087173 2.9387743 53.046143 3.6666667
-10.679329 2.922194 53.069397 3.2
-10.199199 2.8992999 53.023281 2.2307692
-9.8469372 2.8914881 52.994278 3
-9.4111681 2.8735702 52.920525 2.5142858
-8.9619656 2.8713171 52.990459 2.4000001
-8.5410967 2.8663683 52.982056 2.25
-8.1344728 2.8464139 52.986858 3.5416667
-7.77985 2.8440828 53.008091 2.8583333
-7.3840699 2.834501 52.99511 2.9285715
-6.8769221 2.8264072 53.023064 3.904762
-6.6178408 2.8834846 52.966305 4.2857141
-5.7993345 2.9002409 53.036766 4.5
-5.3535585 2.9835589 52.973675 5.916667
-4.8726444 2.8703475 53.111565 5
-4.6249151 2.9420745 53.05759 6.1666665
-4.1988845 2.9341559 53.041466 6.1999998
-3.9184661 3.0236528 52.964413 6.340909
-15.743597 3.351584 53.016491 7.2608805
-5.2952938 3.3978269 53.019001 9.1075583
-3.8955941 3.395263 53.044384 8.6294584
-15.754386 3.7804666 53.002251 8.2842436
-5.3205681 3.7074645 53.02858 11.575736
-3.893151 3.8268468 52.967239 10.770644
-15.759167 4.135622 52.989586 9.1492071
-3.9059019 4.1615381 52.9883 11.917545
-15.758866 4.5572081 52.997803 10.198413
-3.8985193 4.4975362 52.992474 14.391992
-15.775279 4.9796824 52.996002 11.362921
-3.949311 5.0120153 53.093067 14.102785
-15.776874 5.3777766 52.98708 12.146719
-3.9363604 5.3073111 53.040783 13.1055
-15.781245 5.8122554 52.983761 12.273214
-3.9447517 5.7658377 53.103767 14.1045
-15.800058 6.2560391 52.976341 11.74624
-23.74305 6.5684352 52.828728 12.061
-23.565235 6.6481071 53.097603 12.062
-15.786908 6.5877533 52.98988 12.095531
-15.792272 7.0072379 52.996769 12.82362
-15.801532 7.4145432 52.982086 12.669937
-15.816463 7.7633686 52.999664 12.64662
-15.80041 8.197279 53.010094 13.067625
-15.811862 8.615593 53.003654 13.5
-15.824395 9.0076208 52.992882 13.181818
-15.814571 9.4419222 53.016273 13.9375
-3.9735689 9.3657656 52.830864 12.0915
-15.790506 9.8594341 53.036804 13.7
-15.816806 10.247002 52.998329 14
-4.201746 10.242636 53.128651 13.0905
-15.795421 10.553488 53.020622 14.4
-15.828247 11.002902 52.957172 14.555555
-15.792719 11.357087 53.054306 14.5
-15.84924 11.673162 52.929859 15
-15.854334 12.09663 52.978455 15
-15.789051 12.50051 53.049545 15
55.425858 15.307511 52.861553 12.1265
19.689146 15.733912 53.085419 15.106
-6.9513984 2.7832127 53.375389 2.5833335
-15.628235 3.0652053 53.307896 6.0666666
-15.535715 2.9955521 53.427334 5.71875
-14.536907 2.9382999 53.373108 5
-14.344678 2.8807902 53.300003 5
-13.933231 2.9119918 53.329704 5
-13.598522 2.9339812 53.590019 5
-12.58672 2.893863 53.453064 4.4000001
-12.373157 2.8758593 53.303562 4.5
-11.845254 2.9102392 53.440159 4.3333335
-11.053033 2.9474103 53.43182 3.7666667
-10.588785 2.9233177 53.391865 3.0833333
-10.200466 2.9136345 53.409653 0.99523813
-9.6718817 2.8956587 53.4268 3
-9.3695202 2.8918164 53.414135 2.8333333
-8.9115334 2.8768184 53.369808 2.3333333
-8.5197048 2.8709941 53.404041 2.5999999
-8.2190561 2.8645742 53.413353 2.55
-7.739717 2.8459084 53.470367 1.6666666
-7.3477683 2.8223407 53.348068 2.8194447
-6.9022079 2.8479574 53.468861 3.6060607
-6.5720234 2.9499578 53.395344 4.6533337
-6.1809168 3.0533004 53.425205 5.9908423
-5.8314967 3.0439548 53.396996 5.75
-5.3592925 3.0083325 53.408371 6.1388888
-5.0458093 2.9603517 53.356136 5.8333335
-4.673316 2.9538622 53.426342 5.5999999
-4.0341773 3.0397887 53.410385 6.25
-3.9430192 3.0149038 53.394829 6.6500001
-15.634268 3.3746278 53.337303 7.2346816
-15.565614 3.3375967 53.462288 7.1377778
-11.077241 3.4257531 53.531441 8.25
-6.5334764 3.3588026 53.518093 8.5575724
-6.1290584 3.3542328 53.469501 8.3627272
-5.8523812 3.4461672 53.465473 8.6455555
-5.4197927 3.426754 53.429543 8.439167
-5.0824118 3.3909671 53.266449 9.0027494
-3.9443979 3.3897455 53.421963 8.5364943
-15.646671 3.7748837 53.324432 8.1212778
-15.562428 3.7719021 53.475891 8.1517859
-6.0257673 3.6806791 53.494118 11.775544
-5.7624054 3.6678832 53.483311 11.480667
-5.4363852 3.7413681 53.426052 10.771819
-4.0026484 3.7075539 53.587925 9.8225002
-3.9524519 3.7885859 53.404293 10.835135
-2.5403795 3.6892891 53.575752 10.149
-15.640832 4.1046166 53.367306 8.833333
-15.564639 4.0948048 53.481968 9.0880947
-4.0084953 4.281517 53.518291 14.129
-3.9500568 4.2136722 53.392094 12.996124
-15.648526 4.5882177 53.34277 10.014507
-15.576845 4.5775023 53.442898 9.8133335
-4.0075259 4.4713488 53.506996 15.032249
-3.9655418 4.5348783 53.377602 13.634629
0.56064224 4.507854 53.513962 11.1225
-15.64883 4.9973798 53.365654 10.931583
-15.561859 4.9889474 53.503128 10
-4.0073376 4.9159975 53.53759 13.5
-3.9732883 5.0115333 53.31303 14
-15.648196 5.4066229 53.347527 11.645785
-15.561192 5.4370246 53.539093 10.822813
-4.0076542 5.3291106 53.524204 14.666667
-3.9632671 5.4177113 53.253227 15
-15.653133 5.7806315 53.33477 12.268908
-15.577881 5.7629995 53.49651 11.8
-15.654699 6.195364 53.363602 11.864849
-15.580983 6.2410312 53.526505 12.4535
-23.490973 6.7622414 53.531624 12.064
-15.668446 6.6232548 53.351894 12.498195
-15.576388 6.6116495 53.519646 12.215601
-15.657604 6.9870973 53.392685 13.011973
-15.556503 6.9700737 53.553513 12.357834
-15.664443 7.393899 53.373867 12.813404
-15.581231 7.4402308 53.538982 11.833333
-15.67007 7.7915812 53.395309 13.162184
-15.583016 7.7557168 53.501709 12
-15.667828 8.2111444 53.389568 13.447782
-15.567324 8.2567377 53.567245 13
-15.692443 8.6402521 53.338818 13.083333
-15.58657 8.6396408 53.51712 12.5
-15.681478 8.9727278 53.395477 13.75
-15.589929 9.1163511 53.558479 13.5
-15.676415 9.4112482 53.360741 13.222222
-15.686865 9.7902117 53.377174 13.818182
-15.594028 9.8148193 53.483295 13.333333
-15.658792 10.274059 53.420563 13.888889
-15.698945 10.587174 53.376911 14.5
-15.567221 10.527699 53.580132 14.5
-15.685319 10.9985 53.410595 14.347
-15.66865 11.38106 53.36528 14.625
-15.583926 11.42103 53.478874 15
-15.67868 11.773066 53.411602 15
-15.771757 12.109249 53.451988 14.54125
-15.682521 12.621676 53.452087 15
18.407988 16.044603 53.208408 15.105
-8.0763292 2.7966833 53.687115 5
-7.1045523 2.7928088 53.844627 4
-15.438717 3.0576606 53.796524 5.897059
-14.87216 2.9142475 53.735985 5
-14.633472 2.9246371 53.857525 5
-14.162186 2.9359348 53.827267 5
-13.617912 2.9263015 53.709007 5
-13.285024 2.9475465 53.895172 5
-12.98556 2.8975637 53.817028 5
-12.5596 2.9178967 53.783806 4
-12.190756 2.9187362 53.868294 4
-11.749764 2.9153683 53.673309 4
-11.331178 2.946048 53.649723 4
-10.998536 2.984601 53.809238 3.84375
-10.612109 2.9310734 53.755878 2.404762
-10.200723 2.9247429 53.82933 2.2037039
-9.788373 2.9123211 53.790524 1.1333333
-9.3431025 2.8919716 53.889515 2.2
-8.8929329 2.8752222 53.778564 2.875
-8.51756 2.869556 53.830891 2.8571429
-8.1457911 2.866919 53.816311 1.9393939
-7.6804662 2.8509419 53.792179 2.9166667
-7.3500891 2.8353009 53.768768 2.3
-6.9969535 2.8439558 53.804996 3.7777777
-6.5658402 3.0067289 53.818604 5.2410169
-6.1314783 3.0632334 53.864491 5.9185185
-5.8604426 3.0399027 53.834988 5.7916665
-5.3607306 2.9768522 53.820694 5.6136365
-5.0492206 2.9745743 53.821537 6
-4.6756053 2.9851167 53.714191 6.75
-4.1568999 2.9754264 53.821575 6
-3.9421706 2.9627471 53.773567 6.5
-15.437551 3.3621716 53.818615 7.1923075
-10.952903 3.3795729 53.866108 7.9523811
-6.5591969 3.3185749 53.813976 8.0009146
-6.137785 3.3988736 53.894344 8.7790155
-5.8100147 3.4586473 53.915802 8.6529999
-5.4165821 3.4606431 53.837475 9.4260139
-4.9668684 3.3265367 53.669411 8.6294994
-4.7364025 3.2505021 53.833076 8.6505003
-4.0185795 3.4375439 53.868389 8.4997778
-3.9736183 3.468189 53.750797 8.5594168
-15.65065 3.6822741 53.606346 8
-15.453115 3.7673192 53.813816 8.2002039
-11.20947 3.8164265 53.808449 10.75
-10.947424 3.8000059 53.833759 10.836333
-6.0678 3.7199686 53.883762 11.24533
-5.6583505 3.746062 53.943607 12.005723
-5.4654675 3.7576032 53.847336 10.2213
-4.8832555 3.8005204 53.856266 11.1555
-4.0280957 3.7890911 53.854546 10.782274
-3.9463885 3.7765429 53.757744 10.904114
-2.5348389 3.6945734 53.943146 10.64175
-15.463009 4.1575804 53.798264 9.2743511
-11.221319 4.1253738 53.870491 12.7645
-11.017734 4.1846461 53.839569 13.335444
-10.797782 4.2171907 53.786274 13.75
-4.0307579 4.2038879 53.882427 12.520158
-3.9802485 4.1972384 53.704887 13.162161
-15.469123 4.5879545 53.779427 10.072382
-10.8605 4.4305687 53.728256 15
-4.0364852 4.5388131 53.83717 14.071428
-3.9620655 4.4886165 53.712036 14.771874
-15.468944 5.0086675 53.819172 11.037144
-4.0390544 4.9481463 53.868984 13.5
-15.478886 5.3873711 53.806477 12.209374
-4.0465255 5.376297 53.861004 13.867833
-15.480778 5.7932525 53.783394 11.886364
-4.026865 5.8209448 53.763321 14.605
-26.656982 6.3646326 53.86211 11.06
-23.658184 6.1266279 53.748997 11.0645
-15.487739 6.225462 53.797432 12.145286
-4.0508423 6.2545052 53.870975 15.104
-15.604644 6.4329901 53.615746 11
-15.489542 6.6279325 53.81097 11.905225
-15.491534 7.0123706 53.801125 12.594682
-15.520311 7.4199567 53.757713 12.531346
-15.671808 7.8149734 53.695091 11
-15.513652 7.7919722 53.795952 12.580153
-15.613088 8.0981216 53.673386 13.5
-15.51684 8.2161837 53.803917 13.237077
-15.608665 8.6196709 53.671036 13
-15.499332 8.5780382 53.821568 12.888889
-15.521169 8.9798307 53.830353 13.705882
-15.664578 9.3849602 53.680908 13
-15.513857 9.3564606 53.796818 13.375
-15.613117 9.6929827 53.633621 15
-15.512351 9.7478189 53.829594 13.818182
-4.0930681 9.9867764 53.93763 12.0905
-15.518055 10.087621 53.800571 13.833333
-15.53491 10.529212 53.78508 14.111111
60.073391 10.761968 53.860561 10.1205
-15.543724 10.976586 53.799397 14.333333
-15.619514 11.5288 53.636066 14
-15.505157 11.379102 53.780861 14.666667
-15.518796 11.779679 53.826141 14.8
-15.513908 12.306082 53.864746 15
-15.519285 12.748327 53.868057 15
56.855518 15.225443 53.947952 12.1255
58.981701 15.608845 53.798141 12.1265
17.972061 17.307325 53.775719 15.104
-6.9647646 2.7936668 54.131077 2.6666667
-15.305444 3.0759621 54.18668 5.8076925
-15.035193 2.9740038 54.398472 5
-14.470737 2.9422495 54.106056 5
-14.159081 2.9522779 54.167713 5
-13.794696 2.9497926 54.187561 5
-13.277687 2.9439149 54.096943 5
-13.022506 2.9472177 54.19392 5
-12.552738 2.9567459 54.235992 4.5
-12.069961 2.9328787 54.1633 4
-11.736087 2.9507017 54.344685 4
-11.388903 2.9692292 54.209641 3.5
-10.977484 2.9550304 54.125233 3.25
-10.527574 2.9441323 54.19746 2.5714285
-10.123419 2.9213624 54.157497 2.5
-9.7622299 2.9106936 54.216969 2.5952382
-9.3884211 2.8976867 54.198963 2.1666665
-8.8616152 2.8914604 54.190861 2.0583334
-8.4787254 2.8807302 54.234821 1.8200001
-8.1097889 2.8715317 54.245033 2.8
-7.6958776 2.8542275 54.242863 1.6666667
-7.3867173 2.8368835 54.305676 1.71875
-6.9811797 2.8712683 54.187298 3.6805553
-6.6049395 3.0143888 54.118382 5.4251699
-6.1602325 3.079845 54.150505 6.0705128
-5.8115077 3.0676003 54.196617 6.3000002
-5.4995818 3.0205927 54.053558 6.1999998
-4.9592004 2.9966505 54.130585 6.0833335
-4.583653 3.0657065 54.09869 7.1854167
-4.0760241 3.0493307 54.208267 6.818182
-15.296824 3.3845994 54.229679 7.2555556
-6.5095634 3.3347778 54.046886 8.4643526
-6.1805229 3.3912761 54.114277 8.9595995
-5.7924051 3.3935237 54.194103 8.859869
-5.4499869 3.410428 54.175987 9.1766043
-4.9443083 3.411356 54.247665 9.5013762
-4.6519952 3.3214023 54.192226 8.531559
-4.0405359 3.4458938 54.136505 8.8085165
-3.904 3.5356848 54.155472 9
-15.31746 3.7895608 54.205982 8.3559427
-6.084507 3.7738001 54.006836 13.465416
-5.7465978 3.7214289 54.073116 10.202466
-5.4456849 3.7152207 54.11245 10.833576
-5.0203266 3.7302771 54.170166 10.602538
-4.7092614 3.7543585 54.250153 11.255
-4.0369945 3.8055673 54.177017 10.520217
-3.921526 3.7726722 54.201485 11.194201
-2.4945831 3.7881155 54.179367 11.1415
-15.329189 4.1838346 54.184624 9.4907656
-4.0383945 4.2141318 54.162083 13.128879
-3.9108555 4.204957 54.27951 13.928572
-15.318041 4.573339 54.206192 10.022396
-4.0415454 4.5627942 54.189148 13.57537
-15.340774 5.0044837 54.197239 11.21619
-4.0511389 4.9266367 54.253475 13.9015
-15.329997 5.377728 54.201481 12.234848
-4.0943127 5.3549333 54.267799 14.0625
-15.33137 5.7799006 54.193478 11.749496
-4.0767202 5.8047428 54.168091 14.802187
-15.342517 6.2160606 54.228451 12.005733
-4.0635619 6.2021294 54.161259 14.436334
-26.696964 6.4355879 54.360893 11.0605
-15.35786 6.5952296 54.176853 11.907833
-15.358787 6.9991379 54.20509 12.234591
-15.354897 7.3775539 54.193417 12.16
-15.374473 7.8214192 54.187027 12.544937
-15.374697 8.2127705 54.218956 12.838344
-15.374707 8.6431637 54.184357 12.882353
-4.0950551 8.465374 54.26696 15.1005
-15.357213 8.9987316 54.248592 13.4
53.47094 9.0370789 54.364311 10.117
-15.368503 9.3892527 54.213646 13.285714
-15.388582 9.8363428 54.195827 13.923077
-15.347789 10.163239 54.204075 13.714286
56.614239 10.241241 54.285229 10.119
-15.372609 10.574567 54.211693 14.1
-15.395631 10.984084 54.200447 14.25
-15.377689 11.396438 54.199524 14.625
-15.355198 11.75238 54.224487 14.75
-15.404208 12.035562 54.177494 15
-15.395625 12.443306 54.219635 15
-15.38611 12.859706 54.227989 15
19.274826 16.059053 54.288246 15.1055
-15.229096 3.1184614 54.417667 6
-15.110337 3.1297719 54.626358 5.9545455
-14.634354 3.0036955 54.717667 5
-14.014279 2.980423 54.521553 5
-13.708976 2.9810264 54.535664 5
-13.364655 2.9725606 54.538837 5
-12.963417 2.9791067 54.62442 5
-12.48006 2.991147 54.680634 5
-12.113443 2.9827228 54.57843 4.4000001
-11.616821 2.9954 54.759506 5
-11.333763 2.9748676 54.585583 3.6666667
-11.08514 3.0038469 54.673336 5
-10.599319 2.9447 54.570248 2.8939393
-10.156408 2.9378991 54.54583 2.175
-9.7520599 2.9283218 54.619038 1.8197279
-9.3284988 2.9143212 54.549637 1.8333334
-8.8734484 2.9048107 54.672821 2.3333333
-8.5105906 2.8732936 54.704468 2.5999999
-8.125123 2.8652236 54.588093 1.6666666
-7.7120423 2.8603032 54.643147 2.9166667
-7.3041954 2.8387949 54.659706 2.09375
-6.9797778 2.9001334 54.587242 4.0769229
-6.6164784 2.9844763 54.600471 4.8888888
-6.2100992 2.9956455 54.557121 5.1999998
-5.7960396 2.9795055 54.461384 5.3333335
-5.3832073 2.9910023 54.681923 6
-4.9421029 3.0246692 54.535488 6.2222223
-4.7413731 3.1062016 54.560448 7.2866874
-4.0812879 3.076081 54.678631 7
-15.236687 3.3614485 54.44302 7.1666665
-15.143468 3.4083431 54.635273 7.1047626
-4.9014258 3.3181374 54.652004 8.852849
-4.7429886 3.2965879 54.575607 8.75
-4.0973744 3.3023691 54.599224 7.9262776
-3.9145646 3.5922441 54.569607 10.5
-15.254339 3.8223686 54.482521 8.385313
-15.140566 3.778445 54.630234 8.2722216
-4.04283 3.8155046 54.625061 10.214286
-3.9234333 3.7469149 54.575989 11.356786
-2.6247406 3.815238 54.618435 11.010938
-15.218326 4.1451612 54.489788 9.1904755
-15.155036 4.180428 54.634098 9.5742426
-4.0367384 4.1966882 54.600639 12.289962
-3.9621811 4.2105379 54.54166 13.162018
-15.219932 4.522212 54.474487 10.45
-15.153598 4.5840006 54.656151 10.228986
-4.0520048 4.6018848 54.572235 13.540727
-3.9670117 4.4691262 54.456028 12.666667
-15.233953 4.9536543 54.513004 11.431818
-15.159961 4.9840164 54.63942 10.960784
-4.1136436 4.9732027 54.632164 13.152381
57.00618 4.9110093 54.660797 8.1184998
-15.226267 5.3562737 54.497211 12.141185
-15.156832 5.3682809 54.661556 12.195589
-4.1313267 5.3650546 54.639027 13.555554
-15.234217 5.7994227 54.521439 12.482051
-15.156312 5.7885075 54.650768 11.75
-4.1334767 5.7407064 54.591274 14.252667
-15.225542 6.2035699 54.551056 12.222222
-15.156754 6.164269 54.669437 11.446465
-4.0635571 6.1250019 54.600254 14.568666
-26.642757 6.5746202 54.45874 11.0615
-15.25607 6.6024365 54.499435 11.734955
-15.164605 6.5773058 54.687424 11.797987
-4.070538 6.5734901 54.651764 15.10275
-15.250157 6.9604836 54.542747 12.51825
-15.171629 6.9481969 54.666286 11.794885
-15.251331 7.4257598 54.511032 12.923886
-15.154861 7.3584213 54.719219 12.339938
-15.249798 7.8156819 54.561008 13.017132
-15.170346 7.8673229 54.725956 11.847417
-15.258492 8.2426538 54.532288 13.860751
-15.163321 8.1345978 54.74461 12.135313
-15.239171 8.5398874 54.563656 13.013959
-15.161447 8.5620756 54.746033 13.347333
-15.26831 8.9526367 54.530136 13.333333
-15.170418 9.014163 54.695702 13.375
-15.262984 9.3784018 54.527836 13
-15.172432 9.4516754 54.723888 12.8
53.260761 9.2535191 54.766174 10.117
56.931999 9.4375105 54.564034 10.118
-15.271923 9.8773565 54.535179 13.777778
-15.164131 9.7612181 54.70937 14
52.593975 9.9853258 54.409477 11.117
53.736137 9.9257431 54.55048 10.1175
-15.23589 10.221028 54.547523 14
-15.162038 10.196152 54.722862 13.8
55.419399 10.128251 54.720764 10.118
-15.233368 10.64088 54.616131 13.666667
-15.169697 10.611763 54.695286 14.25
53.497929 10.540477 54.45113 10.118
-15.28586 10.925406 54.598755 14
-15.149936 10.991917 54.729431 14
-15.245897 11.382763 54.5956 14.555555
-15.164977 11.574595 54.680023 15
-15.231178 11.772826 54.562481 14.666667
-15.163666 11.857607 54.728436 14.75
-15.266934 12.142959 54.544079 15
-15.174706 12.213179 54.771545 15
-15.256186 12.550321 54.585052 15
-15.249909 13.000931 54.550747 15
51.957714 13.6437 54.488945 11.1165
-15.005096 3.1543229 55.015911 6.1785712
-14.47677 3.0227737 54.987621 5
-14.019588 3.0440421 55.081142 5
-13.46022 3.0158968 54.982773 5
-12.881253 3.0002232 54.917709 5
-12.646476 3.011071 55.011402 5
-12.127 3.003808 55.017288 4.6666665
-11.86341 2.9908688 55.012321 4.5714288
-11.314323 2.9742301 54.980164 4.25
-11.006318 2.9804609 54.986492 3.5
-10.597612 2.9434152 54.882843 2.5
-10.230296 2.9443572 54.932106 1.5214285
-9.7345409 2.9254947 54.994789 2.5999999
-9.3134327 2.9160118 55.044209 3.7857144
-9.051878 2.8942199 54.974342 4
-8.6034575 2.8892403 54.955616 3.75
-8.1077147 2.8850374 54.990601 3
-7.8170052 2.8610885 55.009811 3.3333333
-7.4266167 2.8469782 55.019409 1.575
-7.0264435 2.8933752 55.020027 3.9244447
-6.6711607 2.9777856 55.016396 4.5238094
-6.2435746 2.9998984 55.031422 5.5
-5.7593369 3.0344677 55.081772 6
-5.4233727 3.0411558 55.078453 6
-4.9623656 3.1048822 55.000916 7.1128149
-4.7763343 3.054893 54.85397 7
-4.1494875 3.0845866 55.049961 7.1831427
-15.022738 3.4179029 54.97501 6.9635415
-11.148329 3.4179478 55.027351 7.6333327
-5.6959801 3.3250625 55.032566 8.281518
-5.4015703 3.4040799 55.054169 8.1539688
-4.9435105 3.3610899 54.968517 8.5373812
-4.1268897 3.3361714 54.969685 8.4742498
-15.039065 3.7700295 54.973232 8.3166332
-11.038037 3.7779465 55.091496 11.48461
-5.365315 3.8347561 55.150547 11.814742
-4.988677 3.9004376 55.085167 10.869917
-4.696229 3.9385991 54.968933 12.12725
-4.0855975 3.793051 55.037289 10.633475
-2.6721768 3.7872531 54.931465 11.137375
-15.028049 4.182013 55.003658 9.7439108
-10.95875 4.0554643 55.123249 14.5
-6.6551981 4.1843643 55.173199 13.636499
-6.3042402 4.3017292 55.158466 9
-5.2663903 4.1409745 55.071365 12.517718
-5.1018496 4.1499257 54.997738 12.298386
-4.5061092 4.0286589 54.890678 12.119124
-4.0810599 4.2210488 54.99625 12.122845
-15.023623 4.6017833 55.00436 10.668571
-6.4412031 4.6150703 55.023609 9.0974998
-6.2128887 4.5069404 55.065327 10.832958
-5.9749918 4.51121 55.045078 12.102
-4.0876293 4.5666533 54.988049 13.522266
-15.040107 4.9628615 54.998192 12.260416
-4.1621857 4.9836774 55.021954 13.026126
-15.049923 5.356215 54.981606 12.299649
-4.1823268 5.3256536 55.048706 14.035583
-15.045979 5.8343606 54.98914 11.820726
-4.1871672 5.7913542 55.105888 14.235047
-15.038298 6.2138429 55.023212 11.956673
-4.1096959 6.2278047 54.996326 14.4015
-15.050328 6.5633197 54.997681 11.654786
-4.1134815 6.5616293 55.106552 14.601999
-15.065698 6.9798703 55.003418 12.057957
-15.073422 7.4039083 54.969242 12.693295
-15.083628 7.7468767 54.949108 12.495395
57.065361 7.7036414 55.029266 10.118
57.272472 7.7750502 54.855473 9.1190004
-15.239056 8.0243073 54.928391 11
-15.077976 8.1308689 54.986736 12.955913
-15.08238 8.642292 54.967583 12.80835
-15.089958 8.9755535 54.978863 12.785714
-15.289884 9.4551659 54.869335 12
-15.058516 9.4006662 55.023205 12.8
-15.107495 9.8472042 54.965904 13.308499
-15.073078 10.220287 55.000145 13.454545
-15.08485 10.65582 54.986366 14
-15.208897 10.857365 54.836716 15
-15.062734 11.019925 55.060349 14.166667
-15.106401 11.470237 54.973457 14
-15.060276 11.75633 55.041042 14.75
-15.085482 12.198547 55.028404 15
-15.088568 12.694039 55.030903 15
-15.072968 13.128761 55.087257 15
-14.983356 13.245583 55.130116 15
52.596008 14.37008 55.088078 12.1165
19.045683 15.809661 55.155987 14.104
18.926966 16.164436 54.999638 14.1045
13.409727 17.476698 55.114471 15.1015
15.629124 17.511398 55.058533 15.1025
-14.862516 3.1754036 55.387333 6.0444446
-14.774887 3.15066 55.550354 6
-14.246163 3.0678749 55.370514 6
-13.798569 3.0493162 55.451233 5.75
-13.211502 3.0296955 55.35751 5
-13.102928 3.0118685 55.484314 5
-12.504618 3.0311785 55.211536 5
-12.243265 3.0131145 55.466068 4.5
-11.761558 2.9909768 55.382851 4.8000002
-11.473798 2.9823751 55.499249 4
-11.021287 3.0586257 55.407475 3.8928571
-10.491895 2.9652927 55.355774 2.4833333
-10.169886 2.9437809 55.35836 1.7653062
-9.8086176 2.9348052 55.422832 3.5714285
-9.4901676 2.9157574 55.395863 3.7
-8.9778337 2.9093125 55.324421 2
-8.5537395 2.891921 55.289921 2.125
-8.1475697 2.8844738 55.327412 3.4166667
-7.7793503 2.8591561 55.378769 1
-7.2978477 2.8300526 55.33511 0.77777773
-6.9999218 2.9103339 55.410572 4.0784316
-6.6022525 2.9877198 55.385906 4.6952386
-6.2527094 3.0201297 55.40229 5.75
-5.7753005 3.1152692 55.407623 6.5625
-5.4098439 3.0524909 55.433201 6.1666665
-5.1139178 3.0712898 55.455647 6
-4.1890864 3.1252575 55.37215 7
-14.8847 3.3740146 55.387291 6.8526316
-14.788102 3.3676822 55.579998 6.5333333
-11.343064 3.5142598 55.598576 8.5
-11.082794 3.3968163 55.40358 7.3592935
-6.5609303 3.3746541 55.566303 9.158
-6.1232891 3.4158523 55.442108 8.4079866
-5.7477098 3.4064245 55.426762 8.4633904
-5.4365563 3.3914063 55.378899 8.3821669
-4.9898276 3.38096 55.317818 8.1490364
-4.5890203 3.4706507 55.35548 8.4128332
-4.214334 3.4592123 55.429489 8.601347
-2.7352209 3.5587218 55.436115 9.1245003
-14.886958 3.7283492 55.370941 8.0152378
-14.78575 3.7665703 55.565388 7.8333335
-11.313469 3.7834656 55.380291 11.359389
-11.051372 3.8075247 55.366165 11.934628
-6.5188828 3.9330282 55.374542 11.869201
-6.1760798 3.9075456 55.497597 10.994474
-5.8254938 3.8254478 55.499702 9.7207994
-5.3822532 3.8469942 55.386673 11.080153
-5.0257697 3.8178227 55.370506 11.16393
-4.7005234 3.8461199 55.301094 11.099948
-4.1884756 3.7646987 55.368122 10.22979
-3.8257928 3.7969151 55.419739 8.7081013
-2.7367041 3.7293808 55.354565 10.237028
-1.8171086 3.9658949 55.565712 11.1295
-14.891178 4.1377192 55.390388 9.2876959
-14.795074 4.097548 55.534317 8
-11.517173 4.0104218 55.40329 13.293875
-11.119053 4.0923219 55.467228 15
-6.80125 4.0757742 55.375565 9.0959997
-6.5866556 4.1180296 55.421772 11.651978
-6.1623125 4.2221494 55.405003 10.652709
-5.8126221 4.1037173 55.436417 10.870307
-5.4504919 4.1674881 55.427715 11.294971
-5.0939956 4.2284837 55.417709 11.291076
-4.5865865 4.1376715 55.409065 12.617563
-4.2230415 4.269856 55.366802 11.811568
-14.898242 4.5495691 55.378143 10.433684
-14.788974 4.5767422 55.592529 12
-6.4616332 4.4602938 55.346367 12.816601
-6.0841317 4.4273262 55.253845 11.60125
-5.2312117 4.5935693 55.594883 11.103
-5.0273728 4.5969415 55.424244 12.872548
-4.6107044 4.6725407 55.499397 12.218093
-4.2102046 4.6198363 55.394176 12.932874
-14.917373 4.9603009 55.349289 12.210156
-6.4286041 4.9377661 55.582756 15.101
-5.7973962 5.0751777 55.52293 11.658999
-5.3632803 5.0774961 55.46476 11.528643
-5.105186 5.1536431 55.419205 12.101083
-4.2369833 4.9835429 55.474846 12.95324
-14.90106 5.4027338 55.396099 12.691029
-14.793612 5.2780714 55.57563 15
-6.0368538 5.5865793 55.43861 13.098
-5.7171059 5.4733987 55.421692 12.248917
-5.365407 5.3084536 55.483337 11.599751
-5.072691 5.210494 55.44154 11.099
-4.2218084 5.4011683 55.389774 13.565728
-14.908936 5.8251224 55.397961 11.982609
-6.0967731 5.6822796 55.439766 11.099
-5.7862325 5.6834016 55.522408 13.59925
-5.4537444 5.6626868 55.458355 11.732666
-4.2366228 5.8312001 55.401722 13.857963
-14.910318 6.1743517 55.378197 11.704325
-14.769335 6.1805954 55.566238 10
-4.195303 6.1762223 55.38892 14.228295
-14.901587 6.5801969 55.430798 11.814034
-4.1985412 6.5735908 55.318806 14.367
-14.917469 7.0249519 55.399124 12.304059
-4.2303619 6.8853126 55.376972 15.025249
-14.908842 7.4546261 55.411942 13.13025
29.25963 7.4753685 55.55542 11
-14.92134 7.8004994 55.418476 12.42979
-14.923969 8.1729326 55.41037 12.745816
-4.2568064 8.2296524 55.250603 14.0995
-14.959402 8.5800428 55.37883 13.089731
-14.925701 8.970067 55.387249 13.090333
-14.78663 8.9046354 55.583858 12
-4.2135229 8.9202337 55.432358 15.099833
29.242147 8.8030977 55.577133 12
52.611977 9.0990353 55.339211 10.1165
-14.929145 9.3778543 55.418018 13.189319
-14.9191 9.7660789 55.44445 13.352556
-14.940369 10.165092 55.397057 13.685722
-4.4106283 10.143321 55.306324 12.0905
29.221895 10.142639 55.592659 13
-14.928355 10.523873 55.415394 14.009611
-14.949463 10.96132 55.386719 14.010813
-14.961586 11.438578 55.416664 14.2
-14.920249 11.79249 55.393673 14.636364
-14.920376 12.16053 55.446285 14.760437
-14.969727 12.63754 55.457863 14.75
-14.93188 12.871217 55.521843 15
-14.914392 13.292403 55.451317 15
41.57325 17.104822 55.241447 14.122
41.486404 17.208076 55.308426 14.121
-14.691342 3.1614425 55.796837 6
-14.08791 3.0603406 55.921944 6
-13.8931 3.0611291 55.791149 5.4000001
-13.436585 3.020437 55.913681 5
-13.170617 3.0287182 55.728195 5
-12.403213 2.9791405 55.785725 5
-12.219252 3.0132785 55.798901 4.5714288
-11.696507 2.9862001 55.839977 4.3333335
-11.315839 2.9890144 55.750053 4
-10.930608 2.9775028 55.811317 4
-10.626648 2.9646513 55.819546 3.8571429
-10.216262 2.9490142 55.709297 2.28125
-9.7841606 2.9448175 55.762421 2.75
-9.3329735 2.9186125 55.762901 1.15625
-8.9273882 2.9023421 55.792522 1.1666666
-8.5338802 2.8852158 55.761372 1
-8.1852732 2.8781784 55.787876 2.2749999
-7.716578 2.8653324 55.810699 2.8055556
-7.3082085 2.8450742 55.849312 2.9666667
-6.9668646 2.9179473 55.7985 3.802381
-6.5692163 2.9961166 55.828629 5.1666665
-6.2141347 3.0504415 55.817444 5.6785712
-5.8292537 3.0696752 55.763481 6.1428571
-5.3643603 3.1070144 55.723339 6.4000001
-5.006896 3.1043797 55.717236 6.8000002
-4.5974493 3.1747503 55.856224 7
-4.24856 3.1217093 55.743176 6.5999999
-14.712931 3.3684843 55.822803 6.6786671
-11.337786 3.4220836 55.684406 7.5232916
-6.4843445 3.3646238 55.656509 7.841208
-6.2507811 3.4130886 55.728046 8.5066261
-5.8314967 3.4788435 55.745838 9.3591499
-5.4422936 3.3764176 55.800228 8.6873465
-5.0298758 3.2672284 55.855206 8.1150751
-4.7501826 3.5424891 55.790695 9.4731665
-4.2675653 3.412461 55.78857 8.9063215
-14.712475 3.7670348 55.842587 8.0282049
-11.314765 3.6454673 55.626404 9.9375
-11.16348 3.9259763 55.621529 13.25
-6.5002642 3.9511375 55.861977 9.9211502
-6.1538372 3.8676357 55.807491 11.199811
-5.8024507 3.7415683 55.757381 10.722788
-5.4702163 3.8105507 55.757755 11.177129
-5.0068913 3.8417058 55.882507 12.015875
-4.6220751 3.7655022 55.804073 9.8867493
-4.2541318 3.6957242 55.726906 9.7853928
-1.8207469 3.9702899 55.689503 11.129
-14.808168 4.0437441 55.655975 8
-14.721089 4.1859441 55.846924 9.3304348
-11.162889 4.0096655 55.676006 14.14695
-6.5361319 4.1234398 55.767216 12.02665
-6.1891694 4.111165 55.706684 9.8800325
-5.7480474 4.2060041 55.79007 10.791537
-5.318768 4.267941 55.824009 10.451885
-4.9111853 4.294312 55.775631 11.308393
-4.588408 4.2876358 55.79409 9.997035
-4.309011 4.3126998 55.764557 11.297275
-1.8471413 4.1179361 55.905018 11.124
-14.811874 4.6377192 55.670849 10.25
-14.727463 4.5672235 55.830425 10.172262
-6.9288492 4.7007732 55.987019 9
-6.5200596 4.7156377 55.958298 9.2981253
-6.049438 4.591053 55.748611 10.30025
-5.8243279 4.6898832 55.77113 10.839334
-5.3605638 4.6840014 55.87701 12.198819
-4.9831262 4.6313739 55.757904 11.958906
-4.5442791 4.5450077 55.780426 12.145046
-4.2802048 4.557097 55.712082 12.11445
-14.815425 5.0145369 55.64756 11.98
-14.736382 4.9471393 55.810642 11.69866
-6.5633821 5.0237045 55.871666 11.956609
-6.1736212 5.0580711 55.880028 12.086198
-5.7803068 4.9925165 55.744694 12.285597
-5.363874 4.9662395 55.811039 11.178375
-5.025178 4.9821157 55.765194 12.661749
-4.7014189 5.0111227 55.942696 11.061251
-4.2686596 4.9947996 55.798264 12.779743
-14.823401 5.3537273 55.700893 10.894666
-14.734559 5.3749852 55.840073 12.599228
-6.8481965 5.3112817 55.971012 11.730334
-6.5337501 5.3616977 55.872841 11.013538
-6.2203569 5.4508767 55.856911 11.587601
-5.8218369 5.3271666 55.79607 12.0292
-5.3268538 5.3487935 55.780712 12.050446
-5.0057254 5.5106435 55.9058 13.2017
-4.7810454 5.262084 55.945187 11.05
-4.2688947 5.3586135 55.791267 13.351321
-14.822136 5.8570614 55.648926 11.25
-14.742264 5.8263364 55.824707 11.867545
-6.4470758 5.6240101 55.708435 14.0975
-6.0905519 5.6893249 55.76236 12.032833
-5.7476144 5.6811023 55.71471 12.627786
-5.3532982 5.7003956 55.738045 12.399972
-5.1281605 5.6752291 55.786064 11.59925
-4.2737308 5.7855053 55.805519 14.331343
-14.834763 6.3023181 55.641903 11
-14.741473 6.1603179 55.835148 11.913
-4.278852 6.2095852 55.813225 13.626
-14.832479 6.5885358 55.69733 11.847249
-14.743686 6.5973239 55.853981 11.871387
-4.2939754 6.5807652 55.861217 14.217
-14.8282 7.0428133 55.686985 12.428572
-14.746153 7.0271311 55.854851 11.916691
-4.3034186 6.9676275 55.855282 15.025249
-14.839086 7.45157 55.700676 12.217199
-14.74627 7.4203825 55.844864 12.411401
-4.2620883 7.2135048 55.681702 15.1005
29.241781 7.4691782 55.78746 11
-14.831192 7.7943749 55.684162 12.708349
-14.7507 7.8205419 55.863701 12.791857
-14.885368 8.2370625 55.743721 13
-14.760381 8.1988306 55.864964 13.467924
-14.857301 8.6255779 55.705433 13.25
-14.778697 8.5539017 55.888309 13.1395
29.224375 8.7952452 55.808853 12
-14.860681 9.0255423 55.646099 13
-14.746388 8.9895401 55.877197 13.5
-14.837719 9.4137011 55.792957 14.5215
-14.742726 9.4483385 55.924206 13.216901
-14.845627 9.7223768 55.7117 12.875167
-14.74468 9.728508 55.877968 13.75
-14.846037 10.215777 55.746296 13.894072
-14.754814 10.204219 55.922287 13.847833
29.218346 10.133936 55.88781 13
-14.848715 10.540406 55.66378 14
-14.752988 10.582507 55.847954 13.8
-14.855525 10.975709 55.740566 13.905786
-14.751165 10.967894 55.909515 14
-14.870855 11.383199 55.68705 14.4172
-14.764555 11.332584 55.925728 14
-14.826496 11.903124 55.744011 15
-14.712132 11.907971 55.905418 14
-14.843767 12.090477 55.79977 14.542749
-14.774364 12.278669 55.866299 14.792625
-14.856995 12.469011 55.648186 15
-14.765747 12.532527 55.869049 15
-14.799477 12.986323 55.919456 15
-14.835855 13.367697 55.78886 15.04225
-14.703684 13.386532 55.877895 15
40.522144 17.108469 55.791496 14.1205
-14.565993 3.1682458 56.192379 6
-14.072822 3.0625255 56.174194 5.6666665
-13.798864 3.0550919 56.324379 5
-13.062241 3.0286541 56.105118 5
-12.658274 2.989203 56.135635 5
-12.127792 3.0149121 56.155258 4.5
-11.878921 3.0129142 56.315929 5
-11.425932 3.0190561 56.176262 3.8571429
-10.977795 2.9698575 56.185204 4.125
-10.550142 2.9667113 56.189671 4
-10.199735 2.9529068 56.176186 2.0666666
-9.721734 2.9354789 56.202835 2.9285715
-9.3044825 2.9294291 56.090626 2.9166667
-8.9194307 2.9042056 56.246876 3.3333333
-8.5357904 2.8989806 56.179554 3
-8.1336184 2.8873332 56.205009 2.7
-7.7633109 2.8722954 56.170166 3
-7.2849264 2.8511736 56.233932 2.5648146
-7.0049839 2.9002657 56.168461 4.0333333
-6.5996976 2.9943197 56.215286 5.1136365
-6.2007446 3.0867317 56.187199 6.0555553
-5.7560358 3.1446915 56.143665 6.75
-4.4910235 3.1803644 56.013592 7
-4.2126641 3.1947513 56.195858 8.1321249
-14.571829 3.3558781 56.206978 6.655128
-6.4454951 3.361788 56.190571 8.4333754
-6.2092624 3.3920996 56.148335 9.0022802
-5.7798471 3.4698925 56.225414 9.4325533
-5.4531164 3.4034519 56.272655 8.7373743
-4.909287 3.2118244 56.073765 8.1356249
-4.6345901 3.2084608 56.339172 8.1309996
-4.3165431 3.3983324 56.166885 8.8788624
-14.575129 3.7555342 56.214211 7.9656816
-6.5477405 3.9673367 56.094101 10.942051
-6.1585975 3.941335 56.060444 11.469562
-5.7975802 3.8061731 56.273209 11.411238
-5.4602199 3.8454051 56.21677 12.085087
-4.9409328 3.821193 56.142044 12.910056
-4.4962392 3.7982872 56.192921 11.037223
-4.3298674 3.7809916 56.176357 10.372984
-2.8191819 3.7376015 56.191402 9.1125002
-2.7883368 3.6241193 56.011753 8.1105003
-1.8950379 3.8819647 56.186691 10.120251
-14.580227 4.1642432 56.231663 9.3290329
-6.8894935 4.1404099 56.325653 10.51725
-6.603755 4.1626902 56.17675 11.744978
-6.2476015 4.1510406 56.200436 12.713289
-5.8510332 4.2307448 56.259724 11.609285
-5.3880444 4.1657729 56.159912 9.1763334
-5.0927968 4.2121272 56.235958 10.438187
-4.5694504 4.1948948 56.191235 12.653
-4.3434706 4.2490091 56.225098 12.890491
-1.8626981 4.1301856 56.104122 11.12325
-14.588342 4.5842443 56.220207 10.679999
-6.8654175 4.6272578 56.220959 10.763167
-6.5664101 4.5798531 56.186424 11.904559
-6.1929317 4.592299 56.172745 11.589046
-5.7209663 4.5506134 56.213593 10.457071
-5.459754 4.6070185 56.189034 11.992194
-5.0827622 4.5405335 56.192944 11.253667
-4.54456 4.5134473 56.194386 13.985084
-4.3420134 4.5118899 56.23243 12.690063
-14.597211 4.9606514 56.208885 12.112745
-6.8208876 5.0111141 56.284142 11.59575
-6.6041269 4.9160624 56.213188 10.591844
-6.1244574 4.8968673 56.170837 10.3193
-5.8394489 4.9420848 56.192753 11.400105
-5.4136686 4.8868771 56.162735 11.016313
-4.910903 4.892108 56.196243 11.977781
-4.6834908 4.9522271 56.147018 12.604
-4.3231721 5.0023718 56.1092 11.780361
-14.613046 5.3701715 56.19062 12.529411
-6.89957 5.2778091 56.10759 10.563416
-6.7650895 5.2718329 56.077545 11.458
-6.1086545 5.368856 56.102219 12.135486
-5.9052835 5.3706231 56.089081 12.341964
-5.3366251 5.287333 56.280533 11.0985
-4.5175004 5.3485732 56.227055 11.880107
-4.3282843 5.3683596 56.21286 12.526375
-14.609895 5.7948833 56.198597 11.405935
-6.4651661 5.8217859 56.375687 14.097
-6.1637549 5.7753954 56.160164 11.9235
-5.8411341 5.8510318 56.216797 12.0791
-5.4288235 5.7283015 56.240395 14.10075
-4.8835206 5.7145228 56.1534 12.767333
-4.725204 5.6936669 56.04221 12.066833
-4.3322763 5.7790475 56.17342 13.321025
-14.600913 6.1924696 56.207809 11.36686
-6.2008209 6.021482 56.333138 11.048875
-4.3328495 6.1979647 56.252743 13.572955
-14.632676 6.6303067 56.180187 12.151946
-4.3435516 6.5597787 56.27512 13.925438
-14.620294 6.9966831 56.19796 12.111111
-4.351469 7.0518212 56.260891 14.883583
-14.625789 7.3210011 56.199886 12.29708
-4.3552351 7.3275166 56.307133 15
29.198172 7.4559727 56.278419 11
-14.631229 7.7957401 56.196404 12.772481
-14.629755 8.204525 56.180153 12.872467
-4.3560429 8.133934 56.117107 15.102
-14.667209 8.6103849 56.165104 13.857142
-4.3924351 8.7499857 56.359901 15.1005
29.191965 8.7807693 56.263908 12
-14.616331 9.0043879 56.215408 13.391154
-14.644352 9.4214544 56.187984 13.673709
-14.677949 9.7509546 56.178402 13.881643
-4.3409309 9.9227629 56.394119 15.099
-14.622017 10.209597 56.225616 14.008499
-4.4657917 10.108755 56.05571 11.5905
29.158773 10.113128 56.281803 13
-14.640811 10.499251 56.18993 13.680751
-14.644264 11.002815 56.153015 14.362
-14.658872 11.380814 56.241238 14.297857
-14.659732 11.751484 56.23481 14.216901
-14.648387 12.119644 56.236786 14.361833
-14.817328 12.744278 56.159245 14
-14.632156 12.639077 56.25174 15.028333
-14.633013 13.065967 56.266785 15.04225
-14.729287 13.531622 56.167664 15.0855
40.571827 17.304478 56.019321 14.1195
-14.450418 3.1346333 56.524799 6
-14.309062 3.1170459 56.613625 6
-13.885137 3.0591769 56.686825 5
-12.952712 3.0111806 56.525501 5
-12.202227 3.0083745 56.600243 4
-11.69356 3.0056219 56.621735 5
-11.369007 2.9945936 56.552086 4.2727275
-11.059188 2.9676402 56.537918 3.6666667
-10.609858 2.9675567 56.564583 1.8333333
-10.169792 2.9529142 56.563915 2.1900001
-9.7147045 2.9451609 56.643974 2.8
-9.3155823 2.9349182 56.586456 3.5
-8.9930601 2.9274652 56.54388 3.875
-8.4699688 2.9062183 56.640591 3.1666667
-8.0804272 2.8943429 56.642185 3.1428571
-7.6958423 2.8853946 56.604256 3.25
-7.3189616 2.870827 56.530346 2.75
-7.0067105 2.8851726 56.610088 2.5641026
-6.5649776 3.013792 56.593044 5.4166665
-6.1944213 3.0961502 56.550266 5.958333
-5.832993 3.1682088 56.55624 6.6666665
-14.444112 3.3981037 56.57423 6.7764702
-14.37265 3.3258078 56.728664 6.5555558
-11.348471 3.4307256 56.647957 7.708333
-11.154172 3.5263112 56.782017 8.5
-5.7284999 3.4170823 56.556774 8.5645332
-5.4316316 3.4304338 56.496593 9.0790844
-4.995338 3.2282763 56.65197 8.1339169
-4.496119 3.4634695 56.537613 9.0950537
-4.3476262 3.4698451 56.593594 9.5065832
-14.445029 3.7358539 56.594398 7.9722223
-14.372325 3.7273922 56.747547 7.5999999
-11.307652 3.8057375 56.626286 10.724771
-11.189857 3.9727144 56.654797 12.125
-6.0657616 3.9926984 56.644451 12.109833
-5.7741065 3.8462784 56.513863 11.741156
-5.4193697 3.8254993 56.553638 12.213023
-5.0158772 3.8437068 56.515533 11.944201
-4.4540181 3.7922008 56.534779 10.899999
-4.3582597 3.8312268 56.560749 11.396383
-14.452378 4.1573195 56.584328 9.1211109
-14.378773 4.1951346 56.730225 8.875
-11.256701 4.1833129 56.671986 13.688667
-11.071989 4.1961641 56.699673 14.017
-6.8795366 4.155828 56.4482 11.011351
-6.6243057 4.262023 56.447266 13.390875
-6.126996 4.1811876 56.637901 13.255452
-5.7625446 4.1241884 56.589607 14.139268
-5.3763151 4.1517663 56.605091 14.02125
-5.0454865 4.1452489 56.52021 13.604504
-4.4362001 4.2242885 56.565445 13.547443
-4.3777103 4.2467232 56.567677 13.162188
-1.9439297 4.0897827 56.519913 10.11375
-14.456526 4.5846047 56.584465 10.642858
-14.380279 4.6167827 56.748413 9.916667
-6.8314815 4.5885987 56.547707 10.649714
-6.6826067 4.5192742 56.49807 10.996129
-6.2842836 4.6315823 56.486828 12.600812
-5.7923141 4.586143 56.604797 13.40314
-5.4068537 4.5950394 56.4771 11.179713
-5.000526 4.7253547 56.499821 11.60375
-4.4918666 4.5753345 56.629536 14.672418
-4.3657236 4.4586415 56.560421 15.037188
-14.461124 4.982399 56.591068 11.492402
-14.375636 4.9756184 56.762161 10.475846
-6.8568859 4.9856329 56.698349 10.763083
-6.7005262 4.9321823 56.491512 11.131912
-6.0763893 4.9164343 56.540958 10.69825
-5.7735734 4.9612594 56.60619 11.098428
-5.4481525 5.0064254 56.615833 11.099334
-4.8958926 4.9369884 56.53429 11.101334
-4.6145225 5.0188813 56.660664 13.105334
-4.3624706 4.9235144 56.588974 13.05625
-14.466444 5.3765278 56.599346 12.081439
-14.394248 5.3777795 56.730339 10.5
-6.5049353 5.4906096 56.548157 10.097
-6.2324905 5.4280252 56.541271 12.2982
-4.4194598 5.2899122 56.527893 11
-4.3655157 5.3716917 56.537781 11.55025
-14.473053 5.7867289 56.559349 11.138889
-14.380968 5.7780719 56.746174 10.012285
-6.4749265 5.8014998 56.538345 11.597
-6.2488842 5.8164062 56.507004 12.126834
-5.569994 5.9081969 56.536118 14.0995
-4.8876371 5.9499664 56.558224 11.101
-4.4643736 5.8374476 56.50386 13.045639
-4.3627429 5.7870712 56.427197 12.367
-14.478921 6.1728468 56.582588 11.487181
-6.0416288 6.0199413 56.598946 15.099
-5.7074242 6.0609608 56.475342 11.0985
-5.4111466 6.0948195 56.580151 12.433
-4.4405794 6.2994156 56.552002 13.8205
-4.3739367 6.2357435 56.536152 13.776
-14.494236 6.6530995 56.532009 11.731046
-14.338215 6.7449121 56.761856 11
-4.4385448 6.6186357 56.592747 14.014358
-4.3679276 6.5310707 56.485729 13.5
-14.486444 6.9554968 56.610085 12.567906
-14.387411 6.9262753 56.790962 10
-4.4453359 7.0151033 56.525589 14.525126
-4.3690939 6.9100046 56.476685 14
-14.493439 7.3586602 56.583771 12.304174
-14.393245 7.3167787 56.661224 11
-4.4437542 7.3238764 56.538963 15.025
-4.3692007 7.4267373 56.471016 15
29.141981 7.4445505 56.609035 11
-14.498705 7.8286896 56.587711 12.826087
-14.384085 7.9216557 56.782925 15
-14.512378 8.1664104 56.589172 12.593118
-4.3899903 8.066328 56.58667 15.1005
-14.511149 8.6121502 56.595619 13.505964
29.158552 8.7683582 56.647648 12
-14.494576 8.9830723 56.600765 13.005343
-4.4108548 8.9478035 56.799202 14.099
-14.506263 9.383214 56.612133 13.363636
-14.390556 9.346159 56.703396 14
-4.4727116 9.3852367 56.651871 15.09925
-4.3720417 9.2130318 56.567665 15.0995
-14.516366 9.7832251 56.604378 13.801885
-4.7217283 9.9751167 56.549568 15.0985
-4.349618 9.6884861 56.47892 15.099
-14.486516 10.204682 56.596634 13.888889
-4.4215274 10.041476 56.488205 11.091
29.150167 10.102342 56.671654 13
-14.550251 10.571313 56.548923 14.0095
-14.513425 11.049679 56.568287 14.017301
-14.543008 11.462889 56.606865 14.297714
-14.545193 11.888016 56.572449 14.333333
-14.480387 12.255592 56.664864 15.034601
-14.374288 12.062904 56.762001 14
-14.495893 12.644498 56.653339 14.8
-14.395319 12.414061 56.763706 15
-14.576226 13.043456 56.572437 14.694667
-14.415803 13.538452 56.660797 15
-14.511112 13.636411 56.675423 15
53.697601 14.162128 56.651451 11.1115
-14.679481 14.401175 56.48814 15.084
-14.680483 15.290972 56.556366 14.085
16.447889 16.27809 56.725777 15.1025
17.075161 18.084314 56.405052 15.103
-14.284053 3.1474404 56.93008 6
-13.943626 3.0610254 57.044571 5
-13.246481 3.0028849 56.996426 5
-12.78297 3.0201659 56.952682 5
-12.200774 3.0120184 56.986145 4
-11.770926 2.9926076 57.008972 4.75
-11.314457 3.0090897 56.973656 4.6714287
-11.061883 3.0061622 56.911224 4
-10.598558 2.9660213 56.998749 2.5714285
-10.221704 2.954185 57.037861 2.0999999
-9.8278208 2.9511497 56.927456 2.5555556
-9.456913 2.9379625 57.069626 1.75
-8.9966078 2.9213467 56.984562 1.3333334
-8.6151276 2.913188 56.953548 2
-8.1187401 2.8942099 56.95816 2.3125
-7.7745814 2.8818126 56.964279 1.5
-7.3864279 2.8926864 57.033237 1.79375
-6.9759645 2.8941259 57.039146 3.3687501
-6.6136513 2.975575 57.033081 4.7249999
-6.1939092 3.1077242 56.97242 6
-5.8418474 3.1768742 57.011951 6.8000002
-14.266975 3.3595481 57.029362 6.6416669
-11.167303 3.392832 56.873581 7.4166665
-5.6238756 3.2229791 56.952274 7
-5.4371376 3.2284908 56.947628 7
-5.004982 3.2571111 56.983723 8.1293449
-4.4287491 3.4869194 57.001095 9.197917
-4.346221 3.409193 56.930389 9.2238998
-14.28575 3.7596869 57.005997 7.8555555
-11.11841 3.9045279 56.90382 11.442125
-5.6827931 3.9873884 56.866024 14.051541
-5.4341674 3.9179287 56.826904 11.261292
-5.1068397 3.9271662 56.927143 13.09294
-4.4482169 3.8228633 57.065826 11.38
-4.3678894 3.7677231 56.941605 11.5
-14.286574 4.1920462 57.013355 8.8725491
-11.393929 4.2664375 56.837662 13.982666
-11.065705 4.2288747 56.895721 14.022834
-6.1335092 4.184772 56.926228 14.055297
-5.8591065 4.129715 56.964512 13.485857
-5.5434661 4.316124 57.042439 14.486699
-5.0169144 4.0229878 56.923172 13.472501
-4.4392014 4.2000818 56.992264 13.657185
-4.3714108 4.1884933 56.971344 14.483667
-2.0354404 4.0590849 57.143639 9.1099997
-14.288219 4.5847955 57.027668 10.570546
-6.9366703 4.6855197 56.839302 8.0915003
-6.6359539 4.6226249 56.86235 12.599751
-6.2340221 4.6253319 56.829735 11.09925
-5.3124952 4.5377054 56.83025 15.1525
-4.86796 4.4821291 56.985901 14.64975
-4.5104561 4.6002569 57.010914 15.037251
-14.404736 5.075417 56.851639 9
-14.283485 4.9933147 57.044289 11.323955
-6.9199886 4.8855343 56.906128 12.34725
-6.1913252 4.9985642 56.934242 10.097
-5.9665976 5.0245624 56.859837 11.0975
-5.5012074 5.124001 56.940872 14.1025
-5.0571256 4.9240561 56.925884 9.7661667
-4.4743147 4.9746051 57.01392 10.1
-14.416814 5.4979024 56.816841 10
-14.306026 5.3888111 57.0154 11.289495
-6.979744 5.2919445 56.845146 15.097
-6.67276 5.4904995 56.888119 10.097
-6.1524162 5.4675608 56.953876 11.2973
-14.412357 5.7375898 56.804855 11
-14.298903 5.8047843 57.033276 10.975826
-6.5332222 5.8430252 57.170509 14.097
-6.3497252 5.750989 57.059647 14.0975
-14.415513 6.2918768 56.837982 12
-14.314013 6.1887341 57.002842 11.5
-6.2025738 6.0914354 56.808792 11.098
-4.4200835 6.3147197 57.001049 14.101583
-14.407437 6.6418915 56.831997 11.285714
-14.330802 6.6151013 56.996632 12.470589
-4.4291325 6.598999 57.021378 14.1005
-4.3646579 6.487267 57.059368 12.1005
-14.407269 7.000247 56.904083 11
-14.316349 6.9392447 57.0266 11.715416
-4.4291797 6.9995561 56.962727 14.099667
-14.429804 7.328021 56.824493 13.25
-14.315758 7.380764 57.052349 12.408425
-4.4547281 7.4262447 57.117756 14.1005
-14.408694 7.6029267 57.085594 11
-14.320066 7.8123899 57.017715 12.75
-4.4210691 7.6105766 56.88723 15.0995
-14.424803 8.1774902 56.847923 12.5215
-14.331264 8.1417971 57.01635 12.882353
-14.412685 8.5604782 56.862354 14.5
-14.305434 8.5694418 57.093678 13.272727
-4.4260473 8.6043835 57.026356 15.10125
29.102953 8.7517891 57.120049 12
-14.42245 8.9433699 56.84343 14.362
-14.338294 9.0182228 57.014465 13.138933
-4.4651747 9.019372 56.973614 15.10025
-14.400061 9.5067205 56.981789 13
-14.302258 9.3957996 57.05476 13.1
-14.417815 9.7602396 56.912476 13.361167
-14.338577 9.7829475 57.045856 13.555555
-4.4476323 9.8867216 56.806927 11.0915
29.214928 9.8059349 57.108856 13.131
-14.441189 10.010802 56.810116 12
-14.326287 10.210447 56.997387 13.857142
-4.4521809 10.119064 57.102882 12.09
29.121174 10.089592 57.017754 13
-14.436999 10.535424 56.912682 14.2
-14.317165 10.578633 57.017525 13.555555
-14.419419 10.943179 56.87553 14.021626
-14.332937 10.967417 57.069965 14
22.402563 11.111273 56.909443 15.1285
-14.440873 11.523476 56.976864 15
-14.350662 11.373172 56.983265 14
-14.409863 11.807005 56.902473 14
-14.375094 11.746643 57.01059 14.333333
-14.402231 12.214346 56.954742 15
-14.330655 12.206237 57.051476 14.4
-14.407936 12.469217 56.95063 14
-14.339238 12.581431 56.973927 15
-14.360819 12.876711 57.004837 15
-14.409729 13.249494 56.922806 15
-14.330517 13.334534 57.156803 15
-14.446608 13.687413 56.836136 15
-14.317673 13.7233 57.011158 15
-14.153793 3.1510587 57.330769 6.0571432
-13.914823 3.0721836 57.516109 5
-13.391501 3.012532 57.459789 5
-12.483078 3.0166049 57.394466 5
-12.146118 3.013195 57.429253 4.4000001
-11.859364 2.9981759 57.394722 4.5
-11.391988 2.9812043 57.350933 3.6666667
-10.984314 2.9859841 57.348946 4
-10.642768 2.9761565 57.492031 3.8333333
-10.187524 2.9665787 57.359524 3.0555556
