# .PCD v0.7 - Point Cloud Data file format
VERSION 0.7
FIELDS x y z intensity
SIZE 4 4 4 4
TYPE F F F F
COUNT 1 1 1 1
WIDTH 1243
HEIGHT 1
VIEWPOINT 0 0 0 1 0 0 0
POINTS 1243
DATA ascii
-36.498528 -0.28071058 21.053167 7
-36.348953 -0.031149149 21.004631 7
-36.436195 0.0064281225 21.099791 7
-9.4457645 0.57982302 20.912651 7
-8.9950943 0.58015811 20.997395 7
-8.4954281 0.66234565 20.943027 6.5999999
-8.1345758 0.73724329 21.01598 6.1538463
-7.7629042 0.67613685 20.994282 5.9000001
-7.4267163 0.6401037 21.017498 5.52
-6.9724402 0.62727422 21.014099 5.5
-6.5436754 0.63979799 21.061201 4.8888888
-6.219399 0.64699411 20.935221 4.4285712
-5.7270885 0.66888279 21.043703 4.3333335
-5.385623 0.68061352 21.002674 3.9000001
-4.9458523 0.69566351 21.036846 3.3
-4.6101041 0.71521014 21.025091 3.1944447
-4.2426138 0.72858858 20.989353 2.5535715
-3.8638184 0.74171662 20.987173 3.52
-3.4145911 0.76003832 20.987562 3.6428571
-3.0178099 0.7767179 21.011412 3.5454545
-2.6143742 0.77171552 21.009262 3.5833333
-2.2367852 0.77837867 21.01195 4.340909
-1.8201094 0.79025757 21.079062 4.25
-1.4384829 0.7823236 20.985657 3.8
-0.98829484 0.79528922 20.937292 2.5833333
-0.56510854 0.79855567 21.12237 2
-0.069759369 0.79458225 20.832314 5
0.17113304 0.79273331 20.922626 7
0.4909234 0.78912497 20.882801 7
0.85922098 0.77963424 20.863522 7
-16.28709 1.1185884 20.93718 7
-15.659527 0.80698836 21.066784 7
-15.062038 1.1459762 20.933561 7
-14.66432 1.1142069 20.984674 7
-14.155305 1.0016079 20.856796 7
-13.627836 1.0794413 20.942001 7.5237498
-13.368678 0.9107216 20.820618 7
-13.042251 1.0016513 21.031694 7
-12.598227 1.0495756 21.104439 7
-12.124676 0.97158921 20.952421 7.2097998
-11.770176 0.9989478 20.990137 7.3138247
-11.38589 0.95502627 20.991814 7
-10.943322 0.91170883 21.011875 7
-10.588078 0.91785556 20.975838 7
-10.20696 0.92587239 21.005192 7
-9.8958893 0.90686411 20.963387 7
-9.4204226 0.89133418 21.004145 7
-8.9745035 0.88307601 21.035206 7
-8.7386627 0.8842845 21.128628 7
-7.9551234 0.81006563 21.155012 6
-3.5618947 0.80206567 20.851322 7
-2.4859362 0.80106735 21.041922 4.3333335
-2.1309638 0.81044102 21.05529 3.25
-1.7162955 0.81294781 20.97821 4.125
-1.3565539 0.81282401 21.0028 2.9555557
-0.9764998 0.81641889 20.931799 2.4583335
-0.59806442 0.81640691 20.966953 3.5999999
-0.17043994 0.82838017 21.018774 4.1111112
0.19698615 0.82481593 20.975039 5.4545455
0.61893231 0.83911324 21.021124 5.25
0.91440904 0.92139697 20.998085 5.8595653
1.4200451 1.0506295 20.984285 6.6760311
1.7658215 1.0668935 21.007175 7.0828123
2.0106699 1.0695877 21.04229 7.0865002
2.591264 1.0710561 20.975229 8.1679993
2.9276972 1.075402 20.81967 8.1719999
3.3420801 1.0868101 20.889715 8.1715002
3.7029042 1.1929262 21.085678 9.1582499
4.2056046 1.1897116 20.98624 7
4.6760759 1.198983 20.804802 7
-14.634181 1.2098312 21.187504 7
-13.962524 1.205647 20.975573 7
-12.621967 1.2356474 21.141409 7
-12.082745 1.2355628 21.027191 7
-11.704518 1.2482874 21.143551 7
-2.7232671 1.4672494 20.961567 9.5
4.286478 1.2112136 20.983759 7.3875003
4.5882907 1.2367903 21.035875 7.0899997
4.9494987 1.2572002 20.988636 7.1940002
5.4174905 1.2960039 20.911209 8.1223125
5.8116069 1.3194524 21.043865 8.107708
6.2247643 1.3394648 20.975994 8.0778751
6.6079335 1.4015365 21.111313 9.1522503
7.3605962 1.3346384 20.928646 8.1655006
8.3352089 1.4047117 20.994999 8.1645002
9.3946667 1.510079 21.007288 8.1624994
10.084907 1.5755713 21.133202 8.1615
11.499505 1.4643314 21.00827 8.1625004
-39.005142 1.9659675 20.816116 8.0407505
-4.0263901 1.9953122 21.073759 11.0025
-2.8911612 1.7417383 21.067806 10.5
-2.7000165 1.8755736 20.949387 11.089001
14.960137 1.6827539 21.005144 8.1590004
16.950006 1.7632167 21.043659 8.1599998
20.879095 1.9400064 20.969767 8.6455002
21.509842 1.7559268 20.948381 8.1225004
21.678684 1.8858204 20.872835 8.1239996
22.602085 1.8380424 20.968468 8.1239996
-39.100643 2.2661502 20.835611 8.6998329
-3.6058397 2.2731075 21.180508 12.001
-2.83355 2.2839234 21.056999 12.5
-2.7220583 2.1439407 21.079079 12.089001
20.971506 2.0193224 20.858662 8.1254997
22.792633 2.028646 21.167755 8.1265001
23.005005 2.1627097 21.165861 8.1254997
23.687252 2.052043 20.993917 8.1280003
24.059391 2.2341266 20.85924 8.1145
-39.08152 2.4278576 20.815109 8.5389996
-18.441498 2.6707511 20.937977 10.0395
-18.322727 2.635973 21.009235 10.0595
-14.997322 2.7459872 20.939125 11.0305
-3.5797114 2.4287643 20.878246 13.0015
-18.504457 3.0933018 21.012697 11.673375
-18.182699 3.1727352 20.951698 11.54125
-15.269062 2.9370701 21.128077 11.052666
-15.092445 2.8788419 21.083965 11.045376
6.3278971 3.1723826 21.037106 11.893625
6.6428185 3.1421826 20.986103 12.140305
6.878541 3.1120565 20.963566 11.912171
7.2994218 3.1460309 20.879948 11.649126
10.524313 3.1385972 20.841896 11.141875
-19.020947 3.4244537 20.947548 10.888916
-18.580126 3.4322557 21.040609 11.136875
-18.307106 3.3241754 20.979794 11.2995
-17.70746 3.4577742 21.140671 10.526751
-16.635553 3.5255291 21.151154 12.53825
-16.264223 3.4308593 21.135695 12.033929
-15.015473 3.4460752 21.12233 12.701751
-14.564527 3.4878438 20.915686 12.688643
-14.217636 3.4912779 20.908894 12.593385
5.1827292 3.5765791 20.891912 13.11
5.5365696 3.5814183 20.884073 14.129582
5.9672561 3.3800719 21.13102 12.15125
6.1790938 3.4220555 21.009714 13.412905
6.554698 3.2976811 21.016535 12.859797
6.9100928 3.3175297 21.129135 11.822333
7.4496446 3.4570837 20.997471 11.1645
7.9074235 3.3765888 20.961811 11.3613
8.0177383 3.3309231 20.881701 11.1625
9.1078224 3.5295405 20.917221 12.1435
9.4177847 3.4863625 21.043032 11.968166
9.7959604 3.4879751 21.016291 12.142459
10.170113 3.4684589 21.062862 11.657125
10.641687 3.3793626 20.921978 11.053301
10.802572 3.4618173 21.078316 10.164
-20.489719 3.8639812 20.897079 10.566
-20.347481 3.7159753 21.057453 11.06275
-19.459616 3.8082995 21.046772 11.760928
-19.047943 3.7957482 20.943232 11.4245
-18.607418 3.8036528 21.178467 9.0397501
-16.559641 3.8594201 21.12759 14.0425
-16.042822 3.8676641 21.027954 13.38
-15.894488 3.8049705 21.096121 13.3795
-15.175051 3.7136185 21.03301 10.075
-14.539401 3.783411 20.980276 13.420677
-14.285867 3.7726252 20.993864 13.352961
-12.931854 3.8110931 21.008892 12.624749
-12.672077 3.8202698 21.013144 13.042333
-12.297276 3.8094416 20.879013 12.3205
5.1254721 3.7011392 20.965906 14.059291
5.3759623 3.6626139 20.984276 13.952752
5.6048746 3.6348839 21.12178 15.137
6.6097326 3.7475038 20.897068 13.451601
9.0365219 3.6357112 20.966351 11.957601
9.4504986 3.8016095 20.95499 12.615289
9.6802483 3.6895719 20.917288 11.819529
-20.560341 4.0464616 21.175314 10.0685
-20.147097 4.1263146 20.93902 12.375751
-19.89143 4.2722692 20.972971 12.656151
-18.979216 4.1591892 21.020771 11.0655
-18.677114 4.0147772 21.061245 13.054
-17.406654 4.2655301 20.927328 14.052
-16.403984 4.3187132 21.046963 14.055
-16.34881 4.2972589 21.128223 15.045
-15.845126 4.2873774 21.05389 13.057876
-14.470583 4.0734396 21.05574 12.587875
-14.263169 4.2381525 21.141447 14.060375
-12.959182 4.1354718 20.969496 14.180126
-12.560762 4.1525631 20.950953 13.646781
-12.35732 4.1225924 20.960625 13.831195
5.471642 4.1778989 21.02252 13.961666
5.7171888 4.1329975 21.031921 13.5532
9.0378857 4.3921461 20.849174 12.1635
9.4126482 4.1433325 21.067238 12.1292
9.6933346 4.1148338 21.118662 12.9065
27.677898 4.3325114 21.082672 10.154
28.521841 4.2583079 21.067011 10.470166
29.965004 4.256948 20.978287 10
30.163757 4.3241329 20.990129 10.15275
30.718742 4.2250957 20.85713 10.126
-20.020584 4.4186373 21.168655 13.054
-19.710131 4.464705 21.0336 13.053833
-19.017105 4.6949348 21.185722 14.05375
-17.612164 4.7967539 20.89254 15.051
-17.431328 4.6248293 20.928688 12.563749
-16.406616 4.4148149 20.933359 15.041
-16.237364 4.5247898 21.00913 14.720833
-15.860359 4.588716 20.992466 14.4491
-14.314214 4.5669098 21.053169 13.2945
-13.958857 4.7456155 20.988914 15.027
-13.324606 4.7818122 21.185032 15.0635
-12.875238 4.7416844 20.894077 15.0645
-12.659122 4.5445414 20.98613 12.817938
-12.312743 4.6006861 21.060425 12.076
-9.691186 4.7620544 20.930214 13.742833
8.7811499 4.7376351 21.128609 14.1585
8.9773388 4.5596514 20.957651 13.959608
9.2759609 4.5576229 20.916447 13.409124
11.817459 4.463933 20.822926 12.159
26.856401 4.6758218 20.997854 10.133667
27.715378 4.4394693 21.083567 10.134
28.368233 4.4417906 21.100933 11.124
28.596464 4.5504665 20.994909 10.1844
28.910002 4.7167373 20.922071 10.134666
29.825375 4.6228247 20.833601 10.14025
30.360781 4.5623217 21.173019 10.1505
30.740501 4.7238054 20.951777 10.133
73.914612 4.6607275 20.811214 8.1380005
-20.574492 5.1555853 20.964136 12.07
-19.671465 4.9445 21.082695 13.292
-19.460054 5.1485338 21.123856 13.723166
-17.8304 4.9775414 20.892839 12.402167
-17.408318 4.8778563 21.027439 12.564875
-17.158123 4.8365679 20.925617 15.054
-15.845049 4.9196205 21.182419 15.032
-15.312506 5.1865788 20.893631 14.542
-14.139863 4.8549252 20.970819 14.542
-12.936272 5.0254498 20.980286 14.734834
-9.6372204 4.9480882 21.075632 14.57575
-9.5697546 5.0711036 21.126163 13.7315
8.8624744 4.9000077 20.995155 15.149
26.875227 4.987607 21.03389 11.1225
27.451801 5.1641369 21.12323 11.12475
28.292156 4.8895693 21.044266 10.134501
28.531298 4.9620461 21.028988 10.575723
28.825949 4.8737793 20.939888 10.129499
30.430731 5.077599 20.817207 10.1275
31.396049 4.9881248 21.103289 10.453834
31.703781 5.030849 20.836063 10.12
73.866859 4.8075266 21.157932 9.1324997
-21.196096 5.2073455 20.876444 12.0695
-20.585255 5.5409126 20.94305 12.06925
-19.220842 5.2319188 21.109577 13
-17.915955 5.5742044 21.079514 13.068
-15.294319 5.2246737 20.879637 14.383667
-15.125033 5.4754105 21.039837 13.071
-13.375626 5.4152331 20.916784 13.571667
-13.141458 5.3177662 20.838123 15.068
-9.394742 5.3418002 21.138304 13.692082
-9.0287447 5.5696144 21.045256 14.364334
25.504992 5.5727806 20.991293 11.1415
26.276119 5.3113751 21.112198 11.384999
26.58074 5.5076933 21.179987 12.1235
26.800928 5.3641992 20.880342 11.1275
27.51683 5.245604 21.016567 11.63525
27.608898 5.344748 20.849335 11.1295
28.198549 5.4725723 20.981602 11.463501
28.623796 5.2682371 21.096846 11.125
29.502075 5.2322931 21.045099 11.124
-20.921791 5.837904 20.972157 14.539
-20.664135 5.765769 21.136559 13.06475
-20.324379 5.9692612 21.019934 14.064
-19.292042 5.9674363 20.890528 12.7335
-18.986572 5.9016705 21.025806 13.035999
-18.560234 5.7664108 21.02153 12.56975
-17.934486 5.7224355 20.949457 12.56875
-14.963284 5.7603698 20.914927 14.070499
-14.109502 5.7702928 21.054668 14.0735
-10.104693 5.9804096 21.075047 13.078
-9.9589977 5.8545208 21.062191 13.57925
-9.3269033 5.8219991 21.12962 14.059501
-9.0633802 5.8239517 21.017588 14.066583
-8.7267933 5.7629437 20.995037 14.479701
25.492487 5.7266107 20.958044 11.469167
25.753262 5.773406 21.072594 11.117
27.889988 5.9232755 20.862801 11.13375
28.000648 5.8628955 20.898045 11.143
-20.731977 6.1278353 21.148132 12.0685
-20.115053 6.1356168 21.080153 13.351642
-19.749044 6.2990823 21.026953 15.059
-19.377098 6.1635361 21.185894 13
-18.944252 6.0308867 20.806679 13.06775
-18.792276 6.0641985 21.190203 13.068
-17.407932 6.2475343 21.099127 13.7135
-14.168973 6.1089053 20.927956 13.740167
-13.733893 6.2388892 20.941429 13.408501
-13.293047 6.2476745 20.901997 14.07375
-10.187342 6.2528453 21.192926 15.0775
-9.3064957 6.060358 21.109734 14.039375
-8.7449408 6.048842 21.189497 13.079
-8.1757383 6.2620969 21.14073 14.0025
-7.731535 6.2783318 20.913218 15.0825
25.765047 6.1287904 20.885862 12.13
28.342829 6.0146236 20.937128 11.1205
28.729681 6.0821481 21.066639 11.1185
28.964226 6.0712056 20.969496 11.12475
29.804796 6.207047 21.18445 11.121
-20.093142 6.4540019 21.060575 13.0695
-19.757694 6.6660018 20.949245 14.4653
-19.510441 6.7247734 21.030991 14.56425
-17.791725 6.5872169 21.035927 13.736667
-17.454569 6.5620151 20.925074 14.0695
-15.238446 6.551847 21.057339 14.073
-15.035042 6.5153375 20.900021 13.07225
-14.380108 6.6605392 20.819971 15.071
-13.869228 6.4418716 20.990751 14.405999
-9.4352293 6.5216727 20.999382 14.848
-9.0493317 6.4952874 20.963924 14.041
-8.1751938 6.5576553 21.100111 14.581249
-7.6038609 6.4120746 21.17705 15.083
-7.5671816 6.6184492 21.081024 14.08125
26.438885 6.7146244 21.019506 12.143
-20.027824 6.8267622 20.867031 14.0655
-19.401762 6.9219084 20.92918 14.0355
-17.444777 6.9812284 21.015665 14.569
-15.036488 6.8819828 20.91688 15.07075
-9.4851847 6.8480959 20.850182 14.039
-7.825799 6.9906368 21.05777 14.58175
25.576885 6.8357873 20.974184 12.121
26.56118 6.8430929 20.895782 12.12625
-17.875999 7.4649901 21.111471 14.736167
-17.573563 7.5575151 21.143118 15.06925
-17.002916 7.5700531 21.057768 15.073
-15.013743 7.3812065 21.009281 14.073
-10.58929 7.4533157 20.943722 15.08
-8.8432589 7.4693012 21.111469 15.081
-8.3617773 7.5705132 20.9175 15.079
-19.291019 7.7018075 20.854147 15
-18.50086 7.9178052 20.863344 14.57
-18.001862 7.9304724 21.151072 14
-17.873476 7.7645879 20.922363 14.0705
-17.062538 7.7932343 21.132759 15.07175
-13.038238 7.8668771 21.189226 15.0775
-10.958106 7.9447541 20.911018 15.0765
-10.619888 7.7239418 21.138756 15.078251
-10.123816 7.9079757 21.093538 15.0775
-15.482625 8.351305 20.809336 15.0725
-14.715142 8.1603909 20.812954 15.0745
-12.939596 8.1528797 20.911911 15.07425
-12.39181 8.0035763 20.810738 15.0745
-11.056175 8.1147366 20.899313 15.005
-17.94767 8.7792606 21.068407 15.072
-16.761669 8.4549704 21.151398 15.074
-15.582513 8.4827242 20.84934 15.0715
-14.65017 8.4977894 21.110319 15.073
-8.9202862 8.4532719 21.084299 14.0015
-18.086266 8.8610954 21.062193 15.0705
-11.126484 8.8393698 21.173248 12.1765
71.333176 9.5894213 21.073557 10.133
62.713043 11.622106 20.89785 12.132
64.741013 11.886324 21.060591 12.132
62.619152 12.543229 20.829094 12.1325
69.723473 14.889956 20.971457 13.132
-36.424934 -1.0465717 21.485022 6
-36.007252 -1.0752894 21.308422 6
-33.794502 -0.88046181 21.449978 6
-39.898773 -0.48123911 21.547289 6
-34.495979 -0.092580438 21.555252 7
-37.600307 0.015732765 21.565218 7
-16.826097 0.42064121 21.30603 7
-8.61798 0.61079097 21.31337 7
-8.1813354 0.628236 21.565681 7
-7.7618961 0.73772758 21.356607 6.25
-7.3672996 0.70158452 21.359999 5.8095236
-7.0286794 0.67070574 21.409428 5.3939395
-6.5059781 0.65695429 21.416267 4.5
-6.1483798 0.66501075 21.3894 4.5999999
-5.7981863 0.68417174 21.438055 5
-5.432261 0.69428563 21.380571 3.9230769
-4.9985089 0.72088456 21.440029 3.4000001
-4.604825 0.73403841 21.42034 2.1166666
-4.2580843 0.7447024 21.383318 2.7083333
-3.81517 0.7603851 21.395971 2.3727274
-3.3710129 0.77903652 21.440369 2.9722223
-3.1467879 0.78231001 21.327963 3.1333332
-2.6782944 0.78336585 21.360321 4.583333
-2.1793716 0.7894085 21.242743 5.6666665
-1.8337206 0.77009612 21.345892 6.6666665
-1.3776095 0.78990412 21.337299 7
-1.0686512 0.78772122 21.376005 7
-11.617909 0.98878431 21.360596 7
-11.417181 1.0521605 21.332794 7.4196501
-10.964438 1.0512553 21.391195 7.5238338
-10.596653 1.0206275 21.452911 7.3490829
-10.182897 0.95265514 21.371672 7
-9.8213854 0.94759303 21.423716 7
-9.4700079 0.9580844 21.438395 7
-9.0833559 0.94671172 21.410761 7
-8.544137 0.92550677 21.40262 7
-8.2699432 0.88498545 21.415266 6.6666665
-7.7664905 0.81653601 21.497004 6
-7.4902201 0.81165099 21.568974 6
-3.8137624 0.97602957 21.343536 7.3333335
-3.2018695 0.80622768 21.272909 4
-2.9535549 0.9192304 21.374514 5.7262502
-2.6730127 0.81283545 21.431044 3.2777777
-2.2298405 0.82050055 21.416439 4
-1.8343325 0.8249557 21.416365 3.4458332
-1.4015182 0.82451856 21.394064 3.7049019
-1.0197659 0.82749987 21.383749 4.25
-0.55944437 0.8321386 21.440676 4.0769229
-0.17295477 0.83621144 21.409578 4.3333335
0.25796521 0.84238398 21.399288 5.375
0.61905152 0.85056728 21.363825 5.2142859
1.0471158 0.91931504 21.393404 5.9428658
1.4182154 1.0299218 21.417236 6.8232083
1.7174535 1.0833924 21.480116 6.5894089
2.1369958 1.0784905 21.372589 6.4329004
2.5930243 1.0709956 21.508724 6
2.9038548 1.0840178 21.297037 8.1627502
3.4095631 1.1109254 21.392681 8.1665001
-13.637043 1.225822 21.209602 7
-13.155174 1.2335371 21.222681 7
-11.327541 1.2610896 21.263033 7
-10.932608 1.2710314 21.336742 7
-10.567414 1.2839706 21.464052 7
-3.7449539 1.548229 21.232248 9.5
-2.9154222 1.4228754 21.398479 9.1785002
3.8690569 1.2118665 21.253799 8.6634998
4.3108029 1.2368543 21.453756 7.1659284
4.5503545 1.2580445 21.431736 7
4.9427433 1.27311 21.476719 7.8738127
5.4376526 1.2814273 21.368402 7.3888335
5.8599291 1.3305807 21.301586 8.1303997
6.1914639 1.3107079 21.381636 7
6.5765572 1.3724418 21.501747 8.0768127
7.4423423 1.3630661 21.362839 8.165
7.8273406 1.4673624 21.420639 8.6584997
8.1412306 1.4832592 21.480633 8.1625004
8.5726528 1.514078 21.495609 9.1529999
9.4077349 1.5380892 21.389864 8.1616669
9.8898582 1.5849284 21.438488 8.1604996
10.315868 1.5978732 21.394764 8.1610003
11.667283 1.4927831 21.422501 8.1619997
-3.7196016 1.9647617 21.307781 11
-2.7230763 1.8718916 21.441275 10.838875
15.443926 1.7655545 21.354074 8.1569996
20.918419 1.9274588 21.338127 9.1455002
21.322531 1.8315932 21.385859 8.1225004
21.731733 1.9011612 21.494217 8.1339998
-3.7495103 2.271281 21.2104 12.0015
-2.7849286 2.2353985 21.491825 12
20.994545 2.0347595 21.421562 8.1347504
-19.683559 2.6287498 21.46629 9.7905006
-15.246629 2.7930708 21.292061 11.0365
-15.092043 2.747709 21.420565 11.057
30.757757 2.5969775 21.375549 8.138833
-18.974838 2.9558964 21.29203 10.0635
-18.354193 3.120779 21.227575 12.0435
-15.266828 3.0016701 21.274244 11.039166
-15.081138 3.0969768 21.386097 11.779184
6.2762918 3.1413853 21.393427 12.22935
6.465261 3.1121266 21.373735 11.959874
30.768396 3.0326934 21.444954 10.144
-18.942551 3.3848977 21.287001 12.0515
-18.560356 3.3843458 21.326019 11.047346
-18.383957 3.4416571 21.411016 11.056167
-17.800028 3.5263541 21.384634 11.54525
-17.422527 3.5315914 21.406811 11.555
-16.521986 3.4501007 21.330328 11.909643
-16.299984 3.4701691 21.226192 11.563
-15.974154 3.4126523 21.365959 10.0725
-15.027199 3.3429358 21.293152 12.149047
-14.746813 3.5527477 21.242401 14.043
5.3011684 3.5792964 21.285822 12.6425
5.9527698 3.4655445 21.391708 13.273143
6.1716948 3.4008636 21.399141 13.052252
6.5511112 3.3438442 21.331169 12.97225
7.0187607 3.2903895 21.265175 11.164249
7.9310918 3.4717298 21.201988 11.163
9.4150991 3.4967039 21.444769 12.201562
9.8403816 3.5036755 21.422407 12.139458
10.038815 3.4787111 21.250198 10.662251
-20.564457 3.8369374 21.369955 11.6501
-20.255451 3.8111367 21.316601 11.309999
-19.353264 3.7680631 21.236528 12.033
-18.587353 3.884429 21.316189 11.308187
-18.310738 3.8563943 21.399921 11.459901
-17.763678 3.7261405 21.393988 11.84975
-17.053288 3.7444046 21.322765 12.253
-16.543701 3.8471611 21.422728 12.2604
-16.148312 3.845988 21.362255 13.449399
-15.948102 3.8721695 21.365231 10.57375
-15.242352 3.8065152 21.555799 14.0525
-14.956294 3.7211506 21.387138 13.204625
-14.606923 3.7778506 21.306936 13.324723
-14.189238 3.8994899 21.321871 12.334476
-13.763637 3.8364685 21.524309 13.2165
-13.465004 3.8655155 21.494417 14.036751
-12.823193 3.9690409 21.401695 15.0355
-12.677217 3.8551202 21.407112 12.0575
5.3537011 3.6469169 21.331898 14.058404
5.7494102 3.6267815 21.309477 13.152333
6.3486423 3.7328229 21.517893 13.921639
6.5494337 3.6998849 21.37859 13.15153
9.0267982 3.6090622 21.263071 12.1475
9.5039864 3.6387918 21.426516 12.006157
9.7164364 3.7018256 21.444227 12.3444
10.516683 3.6384501 21.272421 13.1485
-20.540815 4.071094 21.473686 11.062667
-20.269871 4.1790066 21.399555 11.054999
-19.897827 4.1819582 21.290497 12.027
-18.61755 4.2336478 21.501081 12.559125
-18.329222 4.2448258 21.482187 11.7235
-17.720356 4.2887182 21.354866 13.0365
-17.168379 4.0493135 21.511074 11.0675
-16.031588 4.2265434 21.417902 13.711166
-15.887293 4.2097726 21.380926 13.910143
-15.285402 4.0383019 21.585827 15.0485
-15.127991 4.0185547 21.475763 15.047668
-14.433588 4.1555557 21.31171 14.043501
-14.144603 4.1479945 21.423334 13.921468
-13.772746 4.1705256 21.494051 14.536813
-13.517538 4.1460605 21.550257 15.0355
-12.819445 4.1108236 21.263649 14.063
-12.505046 4.2548084 21.391775 13.728724
-12.324507 4.2623348 21.380188 13.3195
-9.71313 4.3330064 21.597597 12
-9.2342186 4.3985195 21.316631 12.0805
5.527472 4.3805161 21.388435 13.1655
5.6762495 4.3078346 21.274364 12.1675
9.1704149 4.3647823 21.286619 15.15075
9.4411554 4.2056708 21.435919 12.7988
9.7158117 4.1370587 21.457788 12.491208
28.268446 4.2801361 21.415054 10.63525
28.429329 4.2975578 21.278923 10.12775
30.220869 4.3025408 21.315762 10.139
30.492851 4.1106949 21.58263 10.1235
-19.770828 4.4486814 21.432632 12.284875
-19.306326 4.5589156 21.247534 13.049583
-19.142113 4.4518561 21.271194 12.0635
-17.959276 4.4188061 21.489658 14.053
-16.597862 4.4657145 21.440361 14.55275
-16.23893 4.5048189 21.380028 14.555
-15.875596 4.5807066 21.348083 13.901643
-15.104012 4.7342186 21.504679 15.0315
-14.639458 4.6222873 21.448973 13.296875
-14.316798 4.5543003 21.322435 13.721333
-13.43461 4.6268015 21.398087 12.53675
-12.984444 4.5536852 21.408348 13.5631
-12.538194 4.5613556 21.42742 12.785929
-12.30055 4.5812306 21.37215 13.68991
-10.222435 4.6015272 21.508448 12.5775
-9.8304129 4.6018686 21.557608 13.695
-9.3047352 4.51335 21.457668 12.524625
-9.0064573 4.676517 21.297691 13.387834
5.4576006 4.4182315 21.266037 14.13875
8.9556875 4.6676254 21.328129 14.030951
9.2624321 4.4500751 21.231941 15.074625
26.795124 4.7550621 21.550797 10.1405
26.865938 4.4561486 21.285126 11.146
27.497915 4.6506877 21.389185 10.134
28.214613 4.566196 21.405399 10.135858
28.603296 4.5246367 21.464603 10.334001
28.924841 4.5611219 21.349789 10.1305
30.294147 4.6521335 21.506659 10.15
-19.642122 5.0601349 21.36791 12.728168
-19.571899 5.0897388 21.380772 12.56175
-17.817942 4.9385929 21.425493 13.059
-17.50284 5.1462278 21.246429 15.055
-16.140341 4.8638372 21.441748 15.043667
-15.901256 4.9008126 21.48871 14.848001
-15.323298 5.0996466 21.523479 14.546
-14.634064 5.0071487 21.550756 13.402833
-14.35044 5.0258827 21.466982 15.025
-13.830698 4.9548674 21.413321 14.52275
-13.362132 4.8548241 21.497316 15.064
-13.071745 4.9543152 21.406046 13.571
-12.607139 4.926722 21.507202 14.568501
-12.221327 4.9056902 21.556585 13.07325
-9.7061367 5.0280094 21.362331 14.037001
-9.411356 5.0632725 21.434093 13.670276
-9.0340586 4.9632092 21.404284 14.017417
8.9187689 4.8816876 21.434322 14.461583
26.362698 4.9799557 21.374149 11.122
27.463549 4.8372989 21.465851 10.126
28.241737 4.9422207 21.411354 10.351556
28.446405 5.1760621 21.326073 11.123
28.857994 4.969471 21.497997 10.14
-21.209425 5.4817276 21.289696 14.054
-19.346041 5.2916169 21.223761 12
-18.020575 5.3275476 21.497688 12
-17.986382 5.326735 21.555735 12.071
-17.367905 5.2721992 21.491455 13.56425
-16.419447 5.3328395 21.217712 14.02375
-16.340584 5.395731 21.414791 15.06
-15.450842 5.399725 21.569487 13.07
-14.854368 5.2935786 21.472572 13.0705
-14.787922 5.500874 21.209566 13.075
-12.995049 5.320847 21.375463 12.0775
-10.165249 5.3387394 21.365868 13.5455
-9.7305679 5.2780566 21.428143 13.4463
-9.3703585 5.3060961 21.404661 13.05975
-8.7768984 5.3223176 21.593473 14.079
25.081509 5.3632803 21.541204 12.1225
25.855022 5.395103 21.436558 11.139
26.410139 5.4504952 21.382317 11.133249
27.420172 5.4445424 21.437452 11.132167
27.950508 5.4810243 21.324429 11.388
29.329607 5.4050174 21.353096 11.1255
-21.003414 5.7330003 21.439075 15.052999
-18.976559 5.8658133 21.278454 14.0645
-18.74832 5.9839969 21.523691 12.0715
-16.111835 5.8102345 21.408535 14.049749
-14.840755 5.8456306 21.273212 13.57375
-13.72007 5.8369513 21.457228 14.57225
-11.151532 5.9917288 21.394224 14.079
-10.76707 5.9661098 21.432285 13.08
-10.272388 5.898386 21.438986 14
-9.8395653 5.9948735 21.324036 14.0785
-9.5138903 5.9042711 21.405148 14.165215
-8.9758177 5.8022022 21.300333 13.720833
-8.6764822 5.7944827 21.494257 14.413918
25.737183 5.7401247 21.240723 11.12225
26.226702 5.764195 21.4736 11.134834
26.499329 5.829237 21.336842 11.12775
27.154161 5.9605207 21.201691 11.116
27.857475 5.6339831 21.352295 11.127
28.174383 5.718297 21.511589 11.63125
28.776232 5.7534099 21.366583 11.1225
30.61437 5.7202177 21.562664 12.144
-20.196184 6.1275997 21.409609 13.055417
-19.455404 6.0639744 21.274883 13.711499
-18.892302 6.0516839 21.279762 12.402333
-13.769022 6.3873501 21.392616 15.071
-11.284788 6.1540241 21.423264 14.577749
-11.042885 6.1367302 21.464706 14.077167
-10.44627 6.2917004 21.461472 15.077
-10.232879 6.0828304 21.489067 14.039249
-9.8890657 6.0768991 21.521519 13.0785
-9.4674225 6.0922771 21.251282 13.718834
-8.8669739 6.3194656 21.518188 13.002
-8.7386436 6.0703144 21.537178 15.0795
-8.3225651 6.1508408 21.267189 15.0065
-7.7681923 6.3776827 21.212456 15.0825
-7.4108381 6.3755713 21.232824 15.0835
26.39539 6.2972989 21.226307 13.144
28.236828 6.0606861 21.380054 11.119249
28.576897 6.0848064 21.357109 11.136333
29.224041 6.1774821 21.21125 11.117
73.829033 6.3682671 21.404539 9
-19.857086 6.574862 21.431738 13.8673
-17.741905 6.7713242 21.383888 14.069
-17.409616 6.5473099 21.290993 14.567499
-14.372181 6.5425558 21.538559 15.0705
-13.834406 6.4992304 21.314098 14.324375
-9.3853264 6.7103429 21.334518 14.290375
-9.0022621 6.5828075 21.361298 14.810249
-7.9500623 6.5549035 21.549143 14.0835
-7.4812155 6.4010344 21.390095 15.083
26.279966 6.4809375 21.345722 12.1435
73.807648 6.5771003 21.362757 9.1368341
-20.008701 7.1268425 21.404068 13.0705
-19.80534 6.9991546 21.311773 13.667999
-19.530283 6.965857 21.369898 14.710667
-19.136564 7.0704193 21.497818 13.735499
-18.015167 6.896142 21.572475 14.0725
-17.755239 6.9112134 21.346901 13.07
-17.504679 6.8203888 21.477945 13.4045
-15.368886 6.8607645 21.33062 15.0725
-15.001137 6.9373503 21.397617 15.07225
-12.925818 7.1304183 21.273121 14.0765
-9.0137548 6.9551744 21.527069 14.0785
73.838165 7.1210423 21.411762 9.1365004
-19.037676 7.4496756 21.267715 15.066
-17.625957 7.3061366 21.435389 15.068
-17.557489 7.329164 21.292242 15.069667
-15.079802 7.2784352 21.256306 14.0755
-17.797585 7.932404 21.307844 14.07
-17.462555 7.7640986 21.24472 14.071751
-17.133387 7.8645511 21.242136 14.404667
-16.635254 7.8479881 21.396847 14.0715
-10.240705 7.861217 21.204054 15.077
-9.0151825 7.6535268 21.342764 15.0795
-18.349174 8.0468302 21.408609 14
-14.747901 8.2030964 21.434429 15.076
-14.336265 8.1844282 21.58703 15.0765
-9.3924742 8.3770943 21.578035 14.002
-17.582056 8.7979403 21.359224 15.0725
-13.855173 8.6510944 21.299131 14.0065
-17.30743 9.0325994 21.531044 15.071
71.263962 9.1483583 21.406017 10.137
73.819939 9.0550213 21.532856 10
68.625053 9.3650684 21.433266 10.134
71.311699 9.406496 21.507786 10.139
73.879616 9.307868 21.324434 10.135
-14.572674 9.9353924 21.418583 14.006
-10.730745 9.674963 21.245178 14.003
73.865913 9.888545 21.503639 10.138
-13.974424 11.32199 21.329607 15.005
63.775303 11.54186 21.425186 12.1315
-14.75532 11.6479 21.275814 15.0055
64.804375 12.747235 21.292812 12.129
63.229908 13.359119 21.30901 12.132
66.643974 14.030218 21.264166 12.1325
-37.335052 -1.129241 21.743591 6
-33.699791 -0.087391645 21.82305 7
-33.566082 -0.36810175 21.961382 6
-33.665569 0.018258631 21.771004 7
-7.8278966 0.64365208 21.813812 7
-7.3428774 0.65526265 21.751848 6.75
-6.9565339 0.72147787 21.784906 5.5999999
-6.5965261 0.69540828 21.844151 5.4615383
-6.2760091 0.68713737 21.801228 4.3846154
-5.7500405 0.71255618 21.810282 4.8888888
-5.4112439 0.71961701 21.819334 4.5
-4.9903789 0.73315442 21.785563 3.6666667
-4.5827508 0.74572784 21.81041 2.8928571
-4.2227163 0.76172334 21.770889 2.4305556
-3.7935014 0.77829784 21.782814 3.0625
-3.3402944 0.78728199 21.644802 1.5
-2.8646367 0.79991019 21.828442 6
-2.7805636 0.79873729 21.62669 0
-1.4552402 0.73611259 21.678537 7
-34.482155 0.92697364 21.610451 7
-13.527471 1.1651981 21.917179 7
-11.782513 1.1387776 21.949936 7
-10.936863 1.0740101 21.800907 7.5219998
-10.542708 1.06493 21.768202 7.597857
-10.290303 1.0638174 21.806784 7.6973329
-9.7482529 0.98406589 21.74284 7
-9.3711319 1.0037258 21.839256 7
-9.0149908 0.96171117 21.807812 7
-8.6009607 0.98140252 21.839306 7
-8.1445265 0.96049702 21.764545 7
-7.7303305 0.88132262 21.81665 6.25
-7.3601408 0.84333068 21.800074 6
-7.0409541 0.83384031 21.910116 5.8333335
-3.3973739 0.8011446 21.876318 1.8333334
-3.0001571 0.81287992 21.828878 2.5333333
-2.5721879 0.82699805 21.792528 3.9464285
-2.1681237 0.84081084 21.88011 3.9913421
-1.8248162 0.84214485 21.814714 3.21875
-1.3782139 0.84406126 21.810923 2.5777776
-1.0251983 0.84503335 21.811962 3.8444443
-0.67975765 0.8486588 21.78441 4.7692308
-0.22407232 0.85509461 21.839075 4.9285712
0.12374669 0.8316316 21.722761 5.25
0.65985626 0.86097085 21.765083 5.3076925
1.0596329 0.88914758 21.786501 5.75
1.3444275 0.96546483 21.776625 6.0400863
1.7513039 1.0513139 21.813736 6.8483496
2.2092054 1.081916 21.823792 6.9967313
2.6029449 1.1016849 21.78623 6.5262504
2.8914185 1.0820748 21.921339 6
3.4235897 1.1181858 21.780329 8.1608753
3.7458928 1.1830292 21.797958 7.3901668
-16.085054 1.2186102 21.647058 7
-13.201587 1.2043201 21.95385 7
-10.661608 1.2057172 21.609102 7
-10.243003 1.2560821 21.851988 7
-9.7755833 1.3280596 21.99416 7
-3.8347559 1.2619919 21.83741 8
-2.7737651 1.4129506 21.623632 9
3.9685197 1.2502413 21.76627 8.6627502
4.3064528 1.2530508 21.694538 7
4.5329986 1.2811421 21.870905 7
4.9295168 1.2964692 21.752337 7
5.3043361 1.3017807 21.818893 7.3896661
5.7688637 1.3252454 21.814056 7.7476668
6.1272478 1.374258 21.814934 8.1253328
6.5099173 1.4316545 21.686125 9.151
7.016335 1.4452689 21.733948 9.1549997
7.2950659 1.4349649 21.880733 8.6569996
7.9780364 1.3898735 21.875065 8.1645002
8.0888443 1.559598 21.841228 8.1602497
8.5485973 1.4996872 21.88636 8.6578751
9.028616 1.5804181 21.682184 8.1610003
9.4338913 1.4896291 21.708397 8.1625004
10.663637 1.4955324 21.718134 8.1619997
11.166975 1.5047668 21.894463 8.1615
11.886899 1.5189657 21.791651 8.1615
-3.8475132 1.7323512 21.800232 9.666667
-3.2410121 1.7038306 21.67931 10.1795
9.3330631 1.6132059 21.91312 8.1599998
12.861662 1.6577789 21.940399 8.1610003
20.964296 1.9409614 21.833597 8.4864998
21.492813 1.9303875 21.795 8.1230001
22.808306 1.8923047 21.606852 8.1234999
-4.0321956 2.1041505 21.722013 11.003
-3.7674806 2.3769207 21.911819 12.002
21.020882 2.0671573 21.885674 8.1342506
23.043352 2.0732951 21.76021 8.1260004
23.420208 2.226717 21.864067 8.125
-19.811253 2.687938 21.792049 10.757787
-19.500246 2.698909 21.83951 10.055833
41.445736 2.5676963 21.971203 8.151
-20.54405 3.1176717 21.958323 9.0690002
-20.062496 3.1604586 21.91699 11.0115
-19.710274 2.9241152 21.864468 9.8233337
-19.490526 2.9633315 21.852022 10.370434
-16.141626 3.1029792 21.782635 11.558001
5.9905076 3.1704772 21.82383 13.13075
6.0874934 3.1383452 21.716331 12.016
6.6838551 3.1796818 21.601173 12.119
-20.171923 3.3716702 21.867315 11.045428
-19.900908 3.308599 21.940414 11.285251
-19.350979 3.3976977 21.91745 11.174266
-17.832357 3.549293 21.646847 12.035
-17.443613 3.5238025 21.931463 10.069
-16.535933 3.3557899 21.962091 11.7275
-16.115244 3.4018757 21.925215 11.889383
-15.868567 3.3897748 21.841866 11.493036
-14.941954 3.4392509 21.921181 11.558125
-14.696518 3.4620807 21.928471 12.657801
-12.073148 3.4133625 21.808704 12.246
-11.914917 3.4812496 21.814539 12.872375
-10.407127 3.5796533 21.74654 14.0235
-10.193988 3.5335598 21.913729 13.013124
-9.9274435 3.4591417 21.94076 12.365833
5.9634023 3.416851 21.687222 13.133699
6.1214104 3.358654 21.778017 12.540216
6.579216 3.2600889 21.613522 11.646125
9.4181042 3.5482979 21.698956 11.744101
9.8898478 3.5335565 21.779984 11.971102
10.144394 3.5698519 21.674761 12.134
29.751461 3.4658003 21.786221 10.12425
30.218481 3.5814395 21.782045 10.145
-20.924894 3.7151184 21.652912 11.0225
-20.472584 3.921067 21.678181 12.055
-20.070665 3.7535374 21.877155 10.0675
-19.890587 3.8284626 21.897264 12.52475
-19.282492 3.8206379 21.906347 13.0485
-17.76424 3.6123223 21.602406 11.549
-17.350464 3.7960289 21.784586 12.926562
-16.399446 3.89763 21.848749 10.0745
-15.857924 3.6888986 21.908455 13.0565
-15.337627 3.6438942 21.973814 13.05375
-14.9856 3.7318943 21.900314 13.214875
-14.72896 3.7089882 21.819054 12.7935
-14.221455 3.9019542 21.862659 13.342134
-12.535474 3.9699912 21.816584 12.57
-12.217223 3.7785492 21.749809 11.572166
-11.896477 3.7453971 21.921827 14.476892
-10.446136 3.7667494 21.995493 10.0035
-10.2306 3.7429821 21.849812 12.081338
-9.8790417 3.7267799 21.891842 13.055857
-9.4745121 3.8445511 21.964581 12.835001
5.8466005 3.6369715 21.601898 14.119
6.1739621 3.760807 21.721733 13.703693
6.4561362 3.7023118 21.612713 14.1555
9.4726591 3.657608 21.766411 12.042954
9.7939177 3.6726394 21.863865 12.510387
28.099741 3.99366 21.878643 10.152
29.99124 3.937964 21.735479 9.1269999
30.168058 3.9094658 21.72661 9.142333
-20.626194 4.0263777 21.668047 12.386666
-20.072386 4.2076721 21.803303 11.0685
-19.955715 4.3867188 21.904053 13
-18.600346 4.2750249 21.710802 12.053375
-18.101435 4.2568841 21.69046 12.725833
-17.897522 4.2431026 21.697086 11.568375
-17.237247 4.21245 21.860706 13.0305
-17.117863 4.144465 21.829376 14.048
-15.901338 4.3183193 21.65451 13.0625
-15.298973 4.0701933 21.802324 14.765214
-15.130058 4.0830059 21.913671 13.559125
-14.432788 4.091495 21.941116 12.6597
-14.21569 4.2101827 21.745352 14.052001
-13.846469 4.258708 21.716518 12.879679
-13.578182 4.1729097 21.656885 15.043625
-12.904059 4.3723264 21.950132 15.029
-12.471913 4.1570992 21.739399 13.283916
-12.272549 4.1643572 21.789335 14.295438
-11.891165 4.1782761 21.777182 13.683521
-10.667233 4.3531094 21.860497 13.54575
-10.284781 4.1863823 21.815821 12.872917
-9.8325891 4.3158088 21.877275 13.390667
-9.4074602 4.1384044 21.825531 13.010834
9.3776093 4.2623553 21.849791 12.082
9.7086153 4.2482972 21.781628 13.001923
26.793165 4.1373725 21.987104 10.153
27.975082 4.1479573 21.756088 10.12475
28.121475 4.2569814 21.732143 10.7369
29.506922 4.0915766 21.80187 10.1235
30.292637 4.2214184 21.65539 10.125
30.447723 4.1377978 21.628836 10.124
-20.228743 4.4478421 21.700172 11.066
-19.725378 4.5546231 21.785774 12.720166
-19.305471 4.621459 21.799629 12.308374
-19.01408 4.609333 21.994143 11.0705
-18.516195 4.4362168 21.641088 11.069
-18.011686 4.4263234 21.703602 11.072
-16.49876 4.4447422 21.679359 13.54975
-16.226107 4.5693607 21.744442 13.943651
-15.927472 4.6123829 21.716555 13.371499
-15.462834 4.6920338 21.867859 14.025499
-14.681015 4.690702 21.62031 13.373
-14.075818 4.4041348 21.895281 14.025
-13.829307 4.4669075 21.756035 15.039833
-13.344917 4.5916591 21.7356 12.555376
-12.581414 4.5360203 21.735865 12.786178
-12.21978 4.646596 21.79096 12.771785
-10.935141 4.6379094 21.834835 13.166091
-10.622331 4.5520768 21.863409 12.932929
-10.2182 4.6331501 21.755024 13.690682
-9.8143167 4.6047292 21.808546 13.461021
-9.3538046 4.6213441 21.73461 14.024875
8.9558697 4.7474971 21.80382 13.964107
26.177301 4.7330689 21.97533 10.1405
26.734552 4.5611711 21.809942 10.457
27.460939 4.5755692 21.70302 10.465667
28.116882 4.5111375 21.798536 10.21209
28.502218 4.6119161 21.651039 10.127
28.834702 4.6602373 21.824129 11.124
31.456076 4.5593481 21.647266 11.144
-19.235794 4.9840641 21.937075 14.0465
-17.165846 4.8959413 21.836567 14.059
-16.497765 5.0844607 21.833292 15.035251
-16.238726 4.8725166 21.77421 14.71875
-15.913879 4.8932357 21.80142 14.6386
-14.706484 5.063076 21.65288 13.072001
-14.159873 5.1253285 21.715458 13.074
-13.743515 5.047883 21.818516 14.306
-13.314954 4.9545541 21.795294 13.4621
-12.978557 5.0202627 21.743696 13.821249
-12.668296 4.923964 21.768682 14.070437
-12.138252 4.9766803 21.865473 14.604142
-11.871136 5.0109134 21.975971 13
-11.037972 4.8698034 21.900095 14.073166
-10.549144 4.8565741 21.834545 15.072
-10.101654 5.0880876 21.803631 13.434199
-9.8153782 4.9797015 21.835733 14.038096
-9.3744326 4.9554834 21.794607 14.325643
-9.0542383 5.0884585 21.882463 14.777249
-8.6282978 5.1002502 21.825497 13.082251
8.9610233 4.8786716 21.833418 14.300569
25.887331 5.0506544 21.811541 11.632999
26.002773 5.0520582 21.868826 11.123
26.602797 4.9983835 21.780724 10.6395
27.171555 5.1863241 21.622772 11.124
27.561058 4.9849148 21.769533 10.61925
28.883745 4.9917688 21.752159 10.1425
-40.624798 5.3505225 21.915024 10.053499
-16.845579 5.4147367 21.647388 15.059
-16.363352 5.4610052 21.737761 15.0605
-15.385982 5.4589524 21.828875 13.560166
-14.837376 5.5241017 21.903309 13.0715
-14.631748 5.3488789 21.69664 13.322
-14.122088 5.204329 21.758791 14.0695
-12.881705 5.433435 21.945507 12.078
-10.470951 5.3926034 21.733482 13.0765
-10.250912 5.3627262 21.765984 13.709666
-9.7294664 5.2825489 21.78314 13.269375
-9.3442135 5.3195004 21.839314 13.771001
-9.1491623 5.3519092 21.820452 13.387834
-8.5667887 5.379734 21.866722 13.003
24.329002 5.2136598 21.831898 12.1215
24.727505 5.5035896 21.669796 11.142
25.017445 5.449472 21.719213 11.1425
25.388472 5.4187369 21.940418 11.139
25.846989 5.3030639 21.746214 11.333799
26.100298 5.4248619 21.706997 11.123751
26.40745 5.2421689 21.839649 12.1435
26.945141 5.4555683 21.901371 11.1355
27.403931 5.3418241 21.72212 11.125
27.874918 5.4930172 21.775665 11.637
28.095934 5.4814425 21.639305 11.129
29.208181 5.3520441 21.700272 11.1245
-40.537735 5.8261075 21.789925 11.039249
-19.441069 5.9409246 21.884533 13.069
-18.124866 5.7978878 21.742105 13.56575
-17.911894 5.9460816 21.724285 12.071
-16.051033 5.9159689 21.988998 15.0655
-15.588892 5.7343931 21.814869 13.54875
-14.931679 5.6897016 21.833206 12.0735
-14.675969 5.7779632 21.853012 12.739499
-10.446329 5.7073679 21.667761 14.077375
-10.158448 5.8695612 21.778412 13.5795
-9.8959179 5.8354506 21.796162 14.058374
-9.2436419 5.9282613 21.873926 14.080167
-8.9830093 5.6664486 21.848204 15.031834
-8.6800737 5.8728437 21.654331 14.0815
14.74354 5.9623704 21.864082 15.148251
24.327364 5.78438 21.895508 11.114
24.48571 5.8153834 21.798594 11.114
25.219227 5.8662381 21.662142 11.1145
26.175472 5.8717785 21.889751 11.07125
28.199259 5.739768 21.758459 11.561
30.673538 5.910697 21.992069 11.1295
-20.237137 6.0888648 21.940527 13.400833
-19.945585 6.2143121 21.749788 12.568251
-18.549459 6.0820937 21.797056 12.380166
-18.135334 6.0600758 21.891956 12.07025
-13.916819 6.2259092 21.723688 14.07325
-11.265049 6.3051863 21.603985 14.07575
-10.957503 6.221077 21.800756 14.0697
-10.7736 6.1304808 21.777302 14.078875
-10.124494 6.0415716 21.796003 14.039
-9.969882 6.3314428 21.952093 13.078
-9.4865971 6.1080551 21.856331 13.103125
-8.6918344 6.1254077 21.862432 14.080333
-8.3644209 6.1729183 21.750904 14.003
26.309134 6.237514 21.662155 12.124
27.828489 6.0625272 21.933552 11.1215
28.173309 6.133894 21.850908 11.12825
28.458897 6.0851393 21.964207 11.1415
28.992943 6.148675 21.966213 11.13
73.780655 6.3900976 21.799519 9
-19.748312 6.5797539 21.978287 13.0705
-18.943819 6.5437627 21.884537 13.403666
-17.425869 6.5776424 21.766647 14.568125
-16.374901 6.5208364 21.833458 14.07
-13.618469 6.4439373 21.705532 15.0715
-10.967506 6.4820137 21.692436 15.07675
-10.147598 6.4105697 21.734009 15.078
-7.6940947 6.5423317 21.83359 14.58325
26.70578 6.6547413 21.991787 12.126
27.360662 6.5539584 21.717178 12.1255
73.462593 6.4144692 21.972279 9.1330004
73.822502 6.6945286 21.674309 9.1355
-19.795509 7.0077801 21.752892 14.565499
-18.940083 7.025301 21.785812 13.570499
-18.488512 7.0939727 21.731771 13
-18.242712 7.1075878 21.778275 13.03525
-17.621431 6.9533858 21.805368 14.071332
-17.425362 6.9744663 21.711946 13.07075
-10.90975 6.8550711 21.60393 14.08
-10.583271 7.0010562 21.878281 14.07925
-17.60076 7.2194366 21.609566 15.0675
-17.538559 7.4137187 21.864609 15.071
-15.118059 7.3042893 21.917854 15.0725
-14.323093 7.5268416 21.761658 15.0755
-8.9433765 7.3280215 21.780222 13.0015
73.744522 7.3031101 21.98481 9.1339998
-18.880032 7.9574757 21.762514 15.0685
-18.792025 7.638217 21.826553 15.0695
-17.708508 7.7589593 21.631151 14.0735
-17.294899 7.8153563 21.797937 13.540751
-17.107033 7.7844901 21.610346 14.073
-16.587044 7.8616652 21.868773 15.073499
-16.390066 7.7758102 21.682449 15.0725
-8.2932863 7.8607845 21.813894 15.0795
25.38773 7.9909945 21.933243 13.154
-11.101892 8.2067833 21.969862 15.0765
-9.5002384 8.0027437 21.951164 12
25.394417 8.3117952 21.91469 13.412333
-14.196918 8.5874004 21.813896 13.006
-10.702343 8.5205078 21.839443 13.0025
25.459896 8.5089569 21.922476 14.12325
69.537758 8.5454845 21.823368 10.133
-15.636138 8.8252802 21.714823 15.0725
73.802109 9.0519028 21.820892 10.088833
-19.600904 9.4149981 21.749889 15.069
-18.467335 9.2863665 21.990042 15.07
-18.335648 9.3337116 21.992239 15.0705
-10.842545 9.5158911 21.771345 12.587999
-10.603996 9.2635956 21.906368 13.001
-10.868662 9.6128483 21.661942 13.1765
-10.533277 9.6360235 21.836243 12.172
-10.18721 10.091587 21.808014 14.0015
68.637985 10.030554 21.991447 11.132
64.2202 11.760166 21.983015 12.1315
73.759727 11.700172 21.8771 11.06675
-14.613076 12.002993 21.939083 15.0045
65.189545 12.867556 21.615112 12.127
66.466919 13.4877 21.675501 13.1315
-36.970818 -1.069716 22.126675 6
-39.05759 -0.1756503 22.052013 7
-36.640522 -0.31049454 22.323256 6
-35.853516 -0.056462049 22.256767 7
-33.480209 -0.084152699 22.277105 7
-7.366745 0.66243029 22.104584 7
-6.9930134 0.75846982 22.091715 6.6666665
-6.5857177 0.72680962 22.177834 5.7333331
-6.2777572 0.72740024 22.239113 5.0869565
-5.7470169 0.73009896 22.164213 3.8888888
-5.360477 0.74716514 22.230083 4.2142859
-4.9825459 0.75403249 22.182634 3.4754901
-4.5941596 0.76412863 22.248245 3.4404762
-4.1866164 0.7767356 22.210251 3.690196
-3.8026898 0.78502178 22.182371 3.8888888
-3.4502633 0.79277647 22.037388 3
-0.87018204 0.78975773 22.390148 7
-15.087141 1.1929017 22.033783 7
-14.689915 1.173309 22.19709 7
-14.058252 1.138056 22.08531 7
-13.825696 1.1008644 22.141682 7
-13.247149 1.1266546 22.144535 7
-13.112774 1.0550274 22.344164 7
-12.684073 1.0993199 22.211163 7
-12.202436 1.0887322 22.19939 7
-11.767502 1.1312891 22.15 7
-11.416515 1.0992291 22.200632 7.2607498
-10.871483 1.1173577 22.19812 7
-10.712561 1.140871 22.218582 8.0447502
-10.161989 1.0980306 22.154221 7.734376
-9.8675089 1.0896462 22.254669 7.7014165
-9.4271593 1.0506694 22.18972 7
-9.1011591 1.0465069 22.149517 7
-8.7129021 0.98275203 22.146851 7
-8.2145519 0.93344563 22.197739 7
-7.7682204 1.0046978 22.196608 7
-7.2949948 0.88844138 22.142385 6
-6.974184 0.8869397 22.194185 6
-6.6946988 0.82006305 22.229601 5.3333335
-4.9696026 0.80466241 22.378468 5
-4.1957159 0.80000424 22.360928 6
-3.7323895 0.91409796 22.161442 5.25
-3.3869269 0.81521279 22.268129 3.2727273
-2.9315655 0.82697278 22.208366 2.3333333
-2.5617335 0.85326535 22.198631 2.8333333
-2.1461408 0.8435179 22.159176 4.4102564
-1.823382 0.85957974 22.18886 3.4000001
-1.4152491 0.86127383 22.172857 3.04
-1.0113908 0.8658604 22.216616 3.25
-0.65402293 0.8678416 22.179514 3.8888888
-0.18114585 0.87279481 22.232521 4.1111112
0.19865642 0.87994033 22.196871 5.4615383
0.61334223 0.88329375 22.211155 5.5384617
1.0207942 0.8839649 22.187725 5.5555553
1.4364424 0.94283682 22.153843 6.0429907
1.7898029 0.99169314 22.198418 6.3636365
2.2155995 1.0653232 22.165205 6.5755191
2.5905282 1.0965053 22.182947 6.9592505
2.9701188 1.1133407 22.247332 6.8298893
3.5360255 1.1440696 22.125708 8.1599998
3.7525187 1.1964934 22.08284 7
-42.86153 1.3049006 22.196522 8.0509996
-13.045597 1.2240453 22.269135 7
-12.586113 1.2248092 22.22127 7
-12.111247 1.2224643 22.119751 7
-11.697164 1.2236454 22.088228 7
-11.461007 1.2367563 22.28618 7
-10.08201 1.2523096 22.259054 7
-9.8757038 1.2534051 22.194498 7
-9.2688522 1.3516402 22.266647 7
-8.882247 1.360707 22.338591 7
-3.7747002 1.3277551 22.212421 8
-2.7884958 1.273617 22.104927 8
3.8470612 1.2145692 22.194574 7.3899999
4.2358942 1.2735287 22.177526 7.6647501
4.6200757 1.290976 22.220991 7.210886
5.0127172 1.303773 22.126183 7.2323503
5.349216 1.3294054 22.203426 7.582375
5.7563648 1.3480449 22.287996 7.5840001
6.2367315 1.3801403 22.178028 7.7568054
6.6906681 1.4429765 22.111263 8.0772495
7.0967474 1.4787214 22.209606 9.1516247
7.4291472 1.4918153 22.295347 9.1534996
7.6665635 1.4173092 22.043686 8.1634998
8.4392414 1.5659781 22.376673 9.1514997
8.8282318 1.4698962 22.025961 8.1630001
-4.0269103 1.6184037 22.250532 9.0039997
-3.8936782 1.6909227 22.344589 9.25
-3.4188304 1.86145 22.170498 10.001249
-2.9019449 1.7358168 22.169207 9.7264166
9.1982727 1.6288333 22.325649 8.1599998
9.2461967 1.6404338 22.343697 8.1595001
9.8798094 1.6390486 22.156673 8.1604996
10.373175 1.6537484 22.214954 8.1599998
11.468156 1.6884772 22.363312 8.1585007
14.681738 1.8047867 22.239594 8.1564999
20.96944 1.9875276 22.224846 9.1444998
21.55468 1.9266872 22.214842 8.1222496
21.636911 1.9778305 22.273024 8.1564999
-19.754494 2.3716724 22.212151 9.0695
-4.0191274 2.190716 22.234451 11.004
-3.5950286 2.1907444 22.271212 11.0025
-2.9030921 2.1745837 22.161083 11.294875
-2.659344 2.1039729 22.104807 11.178
20.981916 2.0676074 22.336681 8.1435003
22.08156 2.0306535 22.157196 8.1560001
23.236589 2.1165459 22.355307 8.1254997
26.338385 2.2859087 22.377369 8
26.668905 2.3326268 22.169407 8.1315002
-19.781603 2.6235776 22.28458 9.8233213
-3.8205986 2.4680386 22.372871 12.00325
-20.148289 3.0150008 22.206985 10.049214
-19.913364 2.9636016 22.310667 10.0466
-19.463816 2.8718307 22.051287 10.0625
-14.821558 3.1558778 22.244913 13.02275
-12.144979 3.1735024 22.143349 11.01025
-20.017355 3.4316037 22.164665 12.034333
-19.906769 3.3398967 22.230339 11.789625
-16.016747 3.5313165 22.208271 13.05375
-15.846199 3.4813955 22.223028 11.397167
-15.20321 3.5014491 22.244816 11.068
-14.992453 3.4778318 22.264641 12.510751
-14.696828 3.4530177 22.169006 12.440347
-14.303411 3.5520639 22.267111 11.5385
-12.119205 3.3786712 22.189388 12.946642
-11.889452 3.4770155 22.151413 10.806875
-10.073682 3.5100224 22.060051 12.903501
-9.9187517 3.4979599 22.120668 11.956126
6.1971231 3.3284397 22.195471 12.887103
9.8740664 3.5612142 22.009645 12.129
28.47262 3.4214008 22.133053 10
29.152861 3.4034901 22.250019 10.1235
-20.549522 3.8217835 22.288433 12.0375
-19.857864 3.8264186 22.158787 12.025606
-19.377846 3.8264201 22.090012 11.918125
-17.827532 3.7013125 22.090996 13.044
-17.266201 3.8410163 22.022587 12.0605
-17.155054 3.8374329 22.285568 12.0605
-16.078327 3.7818699 22.370102 14.049
-15.926234 3.7378452 22.180784 12.712667
-15.391466 3.7902141 22.144384 12.5388
-14.949786 3.7904572 22.142326 12.697955
-14.572003 3.8274288 22.258423 12.85107
-14.329483 3.7845874 22.311045 12.901
-13.837079 3.9864013 22.161608 13.708667
-12.416195 3.9958351 22.204121 15.032
-12.142756 3.799432 22.175623 13.602747
-11.872221 3.7680438 22.153358 12.803652
-10.507904 3.8582797 22.160297 12.714133
-10.116678 3.7572792 22.12458 13.03091
-9.9054327 3.771064 22.192511 12.643991
-9.5200415 3.90218 22.088703 13.159187
9.5899811 3.6964674 22.196869 11.162
9.7334585 3.7114708 22.099518 11.944776
27.741905 3.8377211 22.161819 9.0702496
28.648518 3.7593036 22.115189 9.1304998
29.127005 3.8907168 22.140358 9.1366673
29.452555 3.7628741 22.026312 9.1359997
30.3048 3.959681 22.011084 9.1409998
-20.544073 4.0682883 22.208887 13.049333
-20.225912 4.1650538 22.158894 10.069
-19.954975 4.1578355 22.286951 10.072
-19.23558 4.1877413 22.122231 12
-19.052017 4.2096024 22.212524 12.052125
-16.147371 4.3807259 22.020082 14.057
-15.327652 4.1767678 22.168026 14.052
-15.069757 4.0765333 22.238045 12.555
-14.554486 4.0742579 22.172218 13.64295
-14.182805 4.132503 22.198391 13.652613
-13.871555 4.1898274 22.189585 13.598528
-12.451495 4.0934539 22.165016 15.039833
-12.168631 4.1984 22.228306 14.233456
-11.862268 4.2604833 22.234829 13.0605
-10.926975 4.2234039 22.290138 13.04425
-10.573567 4.1653605 22.264746 13.232818
-10.147492 4.240798 22.208948 13.56146
-9.8732862 4.2096558 22.274652 13.658439
-9.524086 4.1875148 22.239664 14.114307
9.9000759 4.2452965 22.12579 13.041555
10.037481 4.2413726 22.229589 13.142301
26.651052 4.2373867 22.214079 10.102
27.98558 4.2938523 22.362221 10.125
31.363008 4.2820625 22.390903 10.1235
-20.20466 4.5088024 22.314857 12.559
-19.828104 4.6332583 22.221107 11.068
-19.203665 4.4599843 22.32999 13.0575
